# .PCD v0.7 - Point Cloud Data file format
VERSION 0.7
FIELDS x y z intensity
SIZE 4 4 4 4
TYPE F F F F
COUNT 1 1 1 1
WIDTH 1953
HEIGHT 1
VIEWPOINT 0 0 0 1 0 0 0
POINTS 1953
DATA ascii
-1.466 6.141 -2.094 0.26
-1.477 6.103 -2.082 0.19
-1.503 6.124 -2.092 0.39
-1.525 6.131 -2.096 0.29
-1.541 6.115 -2.092 0.31
-1.562 6.117 -2.094 0.35
-1.573 6.12 -2.096 0.3
-1.589 6.101 -2.091 0.25
-1.613 6.116 -2.098 0.45
-1.635 6.12 -2.102 0.28
-1.653 6.111 -2.1 0.26
-1.673 6.107 -2.101 0.28
-1.694 6.109 -2.104 0.23
-1.699 6.092 -2.098 0.31
-1.718 6.087 -2.098 0.37
-1.741 6.094 -2.103 0.3
-1.764 6.099 -2.107 0.32
-1.782 6.09 -2.106 0.28
-1.801 6.086 -2.106 0.23
-1.818 6.074 -2.104 0.37
-1.828 6.071 -2.104 0.36
-1.851 6.079 -2.109 0.29
-1.868 6.066 -2.106 0.28
-1.888 6.062 -2.107 0.26
-1.909 6.063 -2.11 0.25
-1.929 6.061 -2.111 0.33
-1.948 6.055 -2.111 0.31
-1.96 6.059 -2.114 0.28
-1.98 6.055 -2.114 0.26
-2.001 6.056 -2.117 0.26
-2.023 6.056 -2.12 0.24
-2.037 6.036 -2.114 0.29
-2.063 6.049 -2.122 0.4
-2.08 6.039 -2.12 0.28
-2.099 6.032 -2.12 0.29
-2.108 6.027 -2.12 0.27
-2.135 6.042 -2.127 0.27
-2.153 6.033 -2.127 0.27
-2.171 6.025 -2.126 0.33
-2.193 6.025 -2.129 0.25
-2.212 6.02 -2.129 0.29
-2.231 6.013 -2.129 0.29
-2.239 6.004 -2.127 0.25
-2.258 5.997 -2.127 0.32
-2.278 5.995 -2.129 0.3
-2.301 5.997 -2.133 0.34
-2.321 5.993 -2.134 0.3
-2.338 5.98 -2.132 0.29
-2.345 5.971 -2.13 0.26
-2.369 5.978 -2.135 0.34
-2.385 5.962 -2.132 0.3
-2.401 5.949 -2.13 0.28
-2.424 5.952 -2.134 0.29
-2.445 5.95 -2.136 0.28
-2.467 5.951 -2.139 0.26
-2.477 5.948 -2.14 0.29
-2.497 5.942 -2.141 0.32
-2.516 5.936 -2.141 0.27
-2.537 5.934 -2.143 0.27
-2.554 5.922 -2.142 0.27
-2.57 5.909 -2.14 0.27
-2.593 5.909 -2.143 0.24
-2.611 5.899 -2.143 0.32
-2.618 5.89 -2.141 0.27
-2.642 5.894 -2.145 0.3
-2.658 5.882 -2.144 0.32
-2.674 5.867 -2.141 0.27
-2.696 5.867 -2.145 0.36
-2.711 5.85 -2.141 0.27
-2.727 5.836 -2.139 0.29
-2.739 5.839 -2.142 0.29
-2.757 5.83 -2.142 0.29
-2.78 5.83 -2.145 0.27
-2.8 5.825 -2.147 0.29
-2.818 5.816 -2.147 0.3
-2.833 5.8 -2.144 0.29
-2.859 5.808 -2.151 0.27
-2.865 5.797 -2.148 0.28
-2.882 5.785 -2.147 0.29
-2.903 5.782 -2.149 0.24
-2.929 5.788 -2.155 0.32
-2.945 5.774 -2.153 0.28
-2.953 5.746 -2.146 0.3
-2.977 5.747 -2.15 0.27
-2.986 5.742 -2.15 0.26
-3.007 5.74 -2.153 0.28
-3.022 5.723 -2.15 0.3
-3.037 5.709 -2.148 0.29
-3.058 5.706 -2.151 0.26
-3.079 5.701 -2.153 0.27
-3.086 5.672 -2.145 0.21
-3.101 5.678 -2.149 0.36
-3.125 5.679 -2.153 0.36
-3.134 5.654 -2.147 0.27
-3.112 5.573 -2.119 0.05
-3.047 5.417 -2.06 0.0
-3.038 5.364 -2.042 0.0
-3.044 5.334 -2.034 0.0
-3.047 5.321 -2.031 0.0
-3.059 5.304 -2.028 0.0
-3.086 5.31 -2.034 0.0
-3.107 5.309 -2.037 0.0
-3.124 5.299 -2.037 0.0
-3.148 5.302 -2.043 0.0
-3.174 5.307 -2.049 0.0
-3.198 5.31 -2.054 0.0
-3.206 5.305 -2.054 0.0
-3.231 5.307 -2.059 0.0
-3.252 5.304 -2.062 0.0
-3.268 5.293 -2.062 0.0
-3.287 5.286 -2.063 0.0
-3.311 5.289 -2.069 0.0
-3.327 5.295 -2.073 0.0
-3.357 5.305 -2.082 0.02
-3.436 5.391 -2.122 0.13
-3.49 5.439 -2.147 0.25
-3.514 5.437 -2.151 0.33
-3.527 5.42 -2.148 0.3
-3.54 5.403 -2.145 0.27
-3.552 5.403 -2.148 0.31
-3.574 5.4 -2.151 0.31
-3.585 5.379 -2.147 0.29
-3.599 5.363 -2.145 0.28
-3.619 5.357 -2.147 0.24
-3.633 5.342 -2.146 0.33
-3.647 5.326 -2.144 0.29
-3.67 5.342 -2.153 0.37
-3.674 5.312 -2.145 0.29
-3.691 5.3 -2.145 0.28
-3.718 5.304 -2.152 0.28
-3.725 5.279 -2.146 0.29
-3.737 5.261 -2.143 0.28
-3.763 5.261 -2.149 0.29
-3.777 5.246 -2.147 0.3
-3.791 5.248 -2.151 0.31
-3.808 5.238 -2.151 0.29
-3.815 5.212 -2.145 0.29
-3.841 5.214 -2.151 0.28
-3.859 5.203 -2.152 0.27
-3.868 5.182 -2.148 0.27
-3.89 5.177 -2.151 0.34
-3.901 5.174 -2.153 0.27
-3.911 5.154 -2.149 0.28
-3.934 5.151 -2.153 0.29
-3.947 5.134 -2.151 0.29
-3.964 5.123 -2.152 0.3
-3.979 5.109 -2.151 0.29
-3.995 5.097 -2.151 0.29
-4.009 5.098 -2.155 0.27
-4.017 5.075 -2.15 0.3
-4.03 5.059 -2.149 0.29
-4.046 5.047 -2.149 0.29
-4.062 5.034 -2.149 0.28
-4.08 5.024 -2.15 0.27
-4.099 5.015 -2.152 0.26
-4.103 5.003 -2.149 0.29
-4.123 4.996 -2.152 0.26
-4.144 4.989 -2.155 0.28
-4.156 4.972 -2.153 0.29
-4.169 4.956 -2.151 0.26
-4.183 4.941 -2.151 0.21
-4.197 4.926 -2.15 0.38
-4.216 4.933 -2.156 0.34
-4.233 4.921 -2.157 0.29
-4.255 4.915 -2.16 0.39
-4.279 4.911 -2.165 0.24
-4.303 4.908 -2.169 0.43
-4.319 4.895 -2.17 0.36
-4.336 4.883 -2.17 0.42
-4.342 4.875 -2.17 0.3
-4.355 4.859 -2.168 0.3
-4.363 4.836 -2.165 0.48
-4.4 4.846 -2.176 0.39
-4.426 4.845 -2.182 0.27
-4.426 4.815 -2.174 0.26
-4.426 4.784 -2.166 0.13
-4.426 4.769 -2.162 0.19
-4.435 4.749 -2.159 0.11
-4.444 4.729 -2.156 0.15
-4.466 4.723 -2.16 0.22
-4.483 4.71 -2.161 0.24
-4.488 4.686 -2.156 0.27
-4.487 4.656 -2.148 0.25
-4.488 4.642 -2.145 0.2
-4.501 4.627 -2.144 0.24
-4.516 4.613 -2.144 0.17
-4.539 4.608 -2.149 0.23
-4.551 4.591 -2.147 0.22
-4.547 4.558 -2.138 0.21
-4.558 4.541 -2.137 0.28
-4.549 4.518 -2.129 0.1
-4.549 4.489 -2.122 0.0
-4.561 4.473 -2.121 0.0
-4.569 4.453 -2.118 0.11
-4.587 4.442 -2.12 0.2
-4.62 4.446 -2.129 0.23
-4.628 4.426 -2.126 0.12
-4.609 4.394 -2.114 0.08
-4.628 4.385 -2.116 0.2
-4.638 4.367 -2.114 0.26
-4.638 4.339 -2.108 0.26
-4.652 4.324 -2.108 0.16
-4.661 4.306 -2.106 0.28
-4.666 4.284 -2.102 0.25
-4.663 4.268 -2.097 0.25
-4.674 4.25 -2.096 0.27
-4.684 4.233 -2.094 0.27
-4.689 4.211 -2.09 0.2
-4.706 4.2 -2.092 0.28
-4.714 4.18 -2.09 0.25
-4.734 4.171 -2.093 0.25
-4.715 4.142 -2.081 0.18
-4.735 4.133 -2.084 0.28
-4.75 4.119 -2.085 0.24
-4.762 4.104 -2.085 0.27
-4.765 4.081 -2.08 0.27
-4.781 4.068 -2.082 0.26
-4.794 4.053 -2.082 0.21
-4.799 4.045 -2.081 0.13
-4.8 4.02 -2.076 0.0
-4.806 4.0 -2.073 0.0
-4.804 3.973 -2.067 0.02
-4.829 3.967 -2.072 0.16
-4.841 3.952 -2.072 0.26
-4.842 3.927 -2.067 0.19
-4.851 3.922 -2.068 0.28
-4.854 3.9 -2.064 0.24
-4.868 3.886 -2.065 0.16
-4.873 3.865 -2.061 0.29
-4.882 3.847 -2.06 0.24
-4.885 3.825 -2.056 0.18
-4.897 3.809 -2.056 0.26
-4.897 3.797 -2.053 0.25
-4.913 3.785 -2.055 0.23
-4.918 3.764 -2.052 0.18
-4.925 3.745 -2.05 0.29
-4.929 3.724 -2.047 0.23
-4.936 3.705 -2.045 0.19
-4.946 3.688 -2.044 0.26
-4.945 3.675 -2.041 0.24
-4.951 3.656 -2.039 0.18
-4.964 3.642 -2.039 0.26
-4.964 3.617 -2.034 0.25
-4.969 3.597 -2.032 0.2
-4.982 3.583 -2.032 0.27
-4.979 3.557 -2.026 0.23
-4.985 3.549 -2.026 0.21
-5.002 3.538 -2.029 0.25
-4.999 3.512 -2.023 0.24
-5.012 3.498 -2.024 0.2
-5.018 3.479 -2.022 0.27
-5.032 3.465 -2.023 0.23
-5.029 3.44 -2.017 0.2
-5.037 3.434 -2.018 0.27
-5.034 3.409 -2.012 0.25
-5.048 3.395 -2.014 0.27
-5.057 3.378 -2.013 0.19
-5.063 3.359 -2.011 0.28
-5.075 3.344 -2.012 0.22
-5.063 3.314 -2.002 0.17
-5.075 3.31 -2.005 0.29
-5.083 3.293 -2.004 0.25
-5.087 3.273 -2.002 0.23
-5.086 3.25 -1.997 0.17
-5.1 3.236 -1.998 0.29
-5.104 3.216 -1.996 0.25
-5.102 3.193 -1.991 0.26
-5.12 3.193 -1.996 0.23
-5.109 3.164 -1.988 0.18
-5.126 3.152 -1.99 0.3
-5.129 3.132 -1.988 0.25
-5.136 3.114 -1.987 0.25
-5.137 3.093 -1.983 0.26
-5.145 3.075 -1.983 0.26
-5.141 3.062 -1.979 0.27
-5.148 3.045 -1.978 0.27
-5.148 3.023 -1.974 0.28
-5.164 3.01 -1.977 0.27
-5.167 2.99 -1.974 0.28
-5.175 2.973 -1.973 0.28
-5.178 2.953 -1.971 0.25
-5.181 2.944 -1.97 0.27
-5.187 2.926 -1.969 0.28
-5.189 2.906 -1.966 0.29
-5.198 2.89 -1.966 0.29
-5.201 2.87 -1.963 0.28
-5.21 2.853 -1.963 0.28
-5.205 2.83 -1.958 0.27
-5.206 2.82 -1.957 0.27
-5.219 2.805 -1.958 0.28
-5.221 2.785 -1.955 0.25
-5.231 2.77 -1.956 0.27
-5.226 2.746 -1.951 0.18
-5.238 2.732 -1.952 0.3
-5.242 2.713 -1.95 0.23
-5.241 2.702 -1.948 0.3
-5.244 2.683 -1.946 0.27
-5.261 2.67 -1.949 0.26
-5.241 2.64 -1.938 0.29
-5.258 2.627 -1.942 0.26
-5.259 2.607 -1.939 0.28
-5.262 2.588 -1.937 0.28
-5.266 2.58 -1.937 0.27
-5.276 2.564 -1.938 0.25
-5.286 2.549 -1.938 0.25
-5.271 2.522 -1.93 0.19
-5.291 2.511 -1.934 0.29
-5.279 2.484 -1.926 0.25
-5.289 2.479 -1.929 0.26
-5.285 2.457 -1.924 0.26
-5.289 2.439 -1.923 0.27
-5.295 2.422 -1.922 0.26
-5.294 2.401 -1.919 0.27
-5.305 2.386 -1.92 0.25
-5.299 2.363 -1.915 0.2
-5.312 2.349 -1.917 0.28
-5.322 2.343 -1.92 0.24
-5.31 2.318 -1.912 0.18
-5.314 2.3 -1.911 0.28
-5.32 2.283 -1.91 0.23
-5.323 2.265 -1.909 0.2
-5.339 2.252 -1.912 0.27
-5.332 2.229 -1.907 0.23
-5.327 2.217 -1.904 0.19
-5.341 2.203 -1.906 0.28
-5.339 2.183 -1.903 0.22
-5.335 2.162 -1.899 0.2
-5.346 2.146 -1.901 0.27
-5.349 2.128 -1.899 0.25
-5.345 2.107 -1.895 0.2
-5.364 2.105 -1.901 0.27
-5.353 2.081 -1.895 0.25
-5.354 2.063 -1.893 0.19
-5.366 2.048 -1.895 0.27
-5.376 2.032 -1.896 0.21
-5.366 2.009 -1.89 0.23
-5.389 1.998 -1.896 0.0
-5.367 1.981 -1.887 0.0
-5.384 1.968 -1.891 0.0
-5.408 1.957 -1.897 0.0
-5.498 1.496 -1.879 0.0
-5.459 1.467 -1.863 0.0
-5.466 1.45 -1.863 0.0
-5.445 1.427 -1.854 0.0
-5.423 1.403 -1.845 0.0
-5.435 1.397 -1.848 0.0
-5.457 1.384 -1.855 0.0
-5.434 1.36 -1.845 0.0
-5.437 1.343 -1.844 0.0
-5.424 1.322 -1.838 0.0
-5.439 1.307 -1.842 0.0
-5.451 1.292 -1.845 0.0
-5.444 1.281 -1.842 0.0
-5.457 1.266 -1.845 0.0
-5.468 1.251 -1.848 0.0
-5.472 1.234 -1.848 0.0
-5.478 1.217 -1.848 0.0
-5.482 1.2 -1.848 0.0
-5.487 1.183 -1.849 0.0
-5.491 1.175 -1.85 0.0
-5.496 1.158 -1.85 0.0
-5.528 1.146 -1.86 0.0
-5.517 1.126 -1.855 0.0
-5.524 1.109 -1.856 0.0
-5.538 1.094 -1.86 0.0
-5.544 1.077 -1.861 0.0
-5.543 1.068 -1.86 0.0
-5.543 1.05 -1.859 0.0
-5.567 1.036 -1.866 0.0
-5.532 -1.309 -1.874 0.0
-5.539 -1.329 -1.878 0.0
-5.52 -1.343 -1.873 0.0
-5.518 -1.36 -1.873 0.0
-5.508 -1.376 -1.871 0.0
-5.509 -1.395 -1.873 0.0
-5.49 -1.408 -1.868 0.0
-5.49 -1.418 -1.869 0.0
-5.484 -1.434 -1.868 0.0
-5.481 -1.452 -1.869 0.0
-5.478 -1.47 -1.869 0.0
-5.464 -1.484 -1.866 0.0
-5.469 -1.504 -1.869 0.0
-5.466 -1.522 -1.87 0.0
-5.48 -1.535 -1.876 0.0
-5.551 -1.574 -1.904 0.0
-5.499 -1.597 -1.889 0.0
-5.484 -1.649 -1.889 0.0
-5.483 -1.658 -1.889 0.0
-5.455 -1.668 -1.881 0.0
-5.442 -1.683 -1.878 0.0
-5.455 -1.705 -1.885 0.0
-5.449 -1.722 -1.885 0.0
-5.487 -1.754 -1.901 0.0
-5.235 -2.138 -1.863 0.0
-5.139 -2.118 -1.83 0.02
-5.124 -2.13 -1.826 0.07
-5.1 -2.139 -1.82 0.2
-5.107 -2.151 -1.824 0.26
-5.072 -2.155 -1.813 0.27
-5.069 -2.173 -1.814 0.3
-5.061 -2.188 -1.814 0.29
-5.048 -2.202 -1.812 0.29
-5.036 -2.215 -1.81 0.3
-5.028 -2.221 -1.808 0.31
-5.005 -2.229 -1.802 0.28
-4.996 -2.244 -1.801 0.23
-4.974 -2.253 -1.795 0.4
-4.972 -2.271 -1.797 0.33
-4.953 -2.281 -1.793 0.28
-4.951 -2.299 -1.795 0.33
-4.949 -2.308 -1.795 0.32
-4.938 -2.321 -1.794 0.32
-4.922 -2.333 -1.791 0.32
-4.912 -2.347 -1.789 0.3
-4.906 -2.363 -1.79 0.32
-4.902 -2.38 -1.791 0.36
-4.884 -2.39 -1.787 0.32
-4.869 -2.392 -1.783 0.3
-4.851 -2.402 -1.779 0.28
-4.853 -2.423 -1.783 0.35
-4.832 -2.431 -1.777 0.33
-4.82 -2.444 -1.775 0.31
-4.819 -2.462 -1.778 0.34
-4.804 -2.474 -1.775 0.34
-4.799 -2.481 -1.775 0.31
-4.801 -2.501 -1.779 0.33
-4.768 -2.503 -1.769 0.3
-4.77 -2.523 -1.773 0.34
-4.757 -2.535 -1.771 0.26
-4.752 -2.552 -1.772 0.35
-4.739 -2.564 -1.77 0.31
-4.735 -2.572 -1.77 0.36
-4.721 -2.583 -1.768 0.3
-4.548 -2.506 -1.701 0.28
-4.421 -2.454 -1.654 0.17
-4.369 -2.442 -1.636 0.16
-4.357 -2.453 -1.634 0.38
-4.339 -2.461 -1.63 0.42
-4.33 -2.465 -1.628 0.38
-4.327 -2.482 -1.63 0.31
-4.308 -2.489 -1.625 0.3
-4.291 -2.496 -1.621 0.39
-4.254 -2.492 -1.609 0.33
-4.221 -2.491 -1.599 0.36
-4.191 -2.491 -1.59 0.34
-4.163 -2.483 -1.58 0.36
-4.142 -2.488 -1.575 0.36
-4.113 -2.488 -1.566 0.38
-4.089 -2.491 -1.56 0.39
-4.074 -2.499 -1.556 0.36
-4.045 -2.499 -1.548 0.38
-4.029 -2.507 -1.545 0.41
-4.02 -2.51 -1.543 0.33
-4.003 -2.516 -1.539 0.45
-4.0 -2.532 -1.541 0.36
-3.985 -2.541 -1.538 0.45
-3.98 -2.555 -1.539 0.29
-3.963 -2.561 -1.535 0.48
-3.939 -2.563 -1.529 0.38
-3.923 -2.561 -1.523 0.52
-3.874 -2.546 -1.506 0.31
-3.773 -2.497 -1.467 0.27
-3.734 -2.487 -1.454 0.32
-3.72 -2.495 -1.451 0.36
-3.679 -2.484 -1.437 0.36
-3.654 -2.484 -1.43 0.39
-3.652 -2.491 -1.431 0.39
-3.615 -2.482 -1.418 0.35
-3.598 -2.487 -1.414 0.37
-3.585 -2.495 -1.412 0.39
-3.565 -2.497 -1.407 0.33
-3.545 -2.499 -1.402 0.43
-3.543 -2.515 -1.404 0.35
-3.521 -2.507 -1.396 0.45
-3.507 -2.514 -1.394 0.36
-3.506 -2.531 -1.397 0.38
-3.48 -2.528 -1.389 0.46
-3.481 -2.546 -1.393 0.29
-3.476 -2.559 -1.394 0.51
-3.464 -2.566 -1.392 0.32
-3.442 -2.558 -1.384 0.52
-3.429 -2.566 -1.382 0.4
-3.4 -2.56 -1.373 0.4
-3.374 -2.557 -1.365 0.38
-3.29 -2.509 -1.331 0.26
-3.249 -2.494 -1.317 0.32
-3.225 -2.491 -1.31 0.37
-3.217 -2.493 -1.308 0.4
-3.188 -2.486 -1.298 0.36
-3.165 -2.485 -1.292 0.37
-3.153 -2.491 -1.29 0.38
-3.129 -2.488 -1.282 0.38
-3.108 -2.487 -1.277 0.39
-3.1 -2.497 -1.277 0.41
-3.082 -2.49 -1.27 0.34
-3.065 -2.492 -1.266 0.42
-3.057 -2.502 -1.266 0.35
-3.035 -2.499 -1.259 0.43
-3.026 -2.508 -1.259 0.42
-3.011 -2.511 -1.255 0.36
-2.991 -2.502 -1.248 0.46
-2.991 -2.519 -1.252 0.37
-2.976 -2.522 -1.249 0.39
-2.967 -2.53 -1.248 0.39
-2.951 -2.532 -1.244 0.4
-2.941 -2.54 -1.243 0.39
-2.93 -2.547 -1.242 0.4
-2.919 -2.545 -1.239 0.41
-2.908 -2.552 -1.237 0.41
-2.899 -2.56 -1.237 0.41
-2.892 -2.57 -1.237 0.41
-2.887 -2.582 -1.239 0.41
-2.875 -2.587 -1.237 0.4
-2.865 -2.595 -1.236 0.4
-2.865 -2.603 -1.238 0.41
-2.857 -2.612 -1.238 0.39
-2.85 -2.622 -1.239 0.4
-2.839 -2.629 -1.237 0.47
-2.838 -2.644 -1.241 0.37
-2.831 -2.654 -1.241 0.45
-2.828 -2.668 -1.244 0.35
-2.826 -2.684 -1.247 0.43
-2.832 -2.698 -1.252 0.34
-2.826 -2.709 -1.253 0.43
-2.823 -2.723 -1.256 0.41
-2.821 -2.739 -1.259 0.41
-2.816 -2.751 -1.261 0.41
-2.816 -2.768 -1.265 0.4
-2.811 -2.781 -1.267 0.4
-2.816 -2.795 -1.272 0.4
-2.815 -2.812 -1.276 0.41
-2.814 -2.829 -1.28 0.41
-2.812 -2.844 -1.283 0.33
-2.808 -2.859 -1.286 0.48
-2.807 -2.876 -1.29 0.34
-2.808 -2.895 -1.295 0.39
-2.81 -2.906 -1.298 0.39
-2.809 -2.923 -1.302 0.38
-2.809 -2.942 -1.307 0.38
-2.805 -2.956 -1.31 0.39
-2.801 -2.971 -1.312 0.39
-2.802 -2.99 -1.318 0.4
-2.803 -3.002 -1.321 0.4
-2.805 -3.023 -1.327 0.33
-2.805 -3.042 -1.331 0.39
-2.799 -3.055 -1.333 0.39
-2.783 -3.056 -1.33 0.43
-2.78 -3.072 -1.333 0.39
-2.78 -3.092 -1.339 0.39
-2.783 -3.105 -1.343 0.39
-2.782 -3.124 -1.347 0.39
-2.782 -3.144 -1.353 0.38
-2.78 -3.162 -1.357 0.38
-2.779 -3.181 -1.362 0.38
-2.779 -3.201 -1.367 0.37
-2.776 -3.219 -1.371 0.38
-2.78 -3.233 -1.376 0.38
-2.778 -3.252 -1.38 0.38
-2.778 -3.272 -1.386 0.38
-2.777 -3.293 -1.391 0.38
-2.773 -3.308 -1.394 0.38
-2.771 -3.327 -1.399 0.38
-2.766 -3.343 -1.402 0.43
-2.78 -3.371 -1.413 0.32
-2.782 -3.396 -1.42 0.42
-2.782 -3.418 -1.426 0.36
-2.78 -3.437 -1.431 0.42
-2.778 -3.458 -1.436 0.36
-2.772 -3.472 -1.439 0.42
-2.78 -3.505 -1.449 0.34
-2.777 -3.512 -1.451 0.4
-2.776 -3.534 -1.457 0.39
-2.776 -3.558 -1.463 0.32
-2.777 -3.581 -1.47 0.4
-2.776 -3.604 -1.476 0.39
-2.775 -3.626 -1.482 0.34
-2.769 -3.642 -1.485 0.4
-2.777 -3.665 -1.493 0.34
-2.774 -3.685 -1.498 0.45
-2.765 -3.697 -1.5 0.41
-2.767 -3.724 -1.507 0.39
-2.734 -3.704 -1.495 0.25
-2.72 -3.709 -1.494 0.29
-2.725 -3.741 -1.503 0.36
-2.716 -3.741 -1.502 0.32
-2.714 -3.763 -1.507 0.47
-2.681 -3.742 -1.495 0.0
-2.707 -3.805 -1.518 0.03
-2.716 -3.842 -1.531 0.07
-2.716 -3.868 -1.538 0.12
-2.804 -4.023 -1.6 0.26
-2.803 -4.035 -1.603 0.3
-2.807 -4.067 -1.613 0.34
-2.78 -4.055 -1.605 0.25
-2.762 -4.056 -1.601 0.36
-2.764 -4.087 -1.611 0.34
-2.737 -4.074 -1.601 0.3
-2.726 -4.085 -1.603 0.27
-2.725 -4.097 -1.606 0.27
-2.702 -4.092 -1.6 0.38
-2.685 -4.094 -1.597 0.34
-2.681 -4.115 -1.603 0.46
-2.663 -4.115 -1.599 0.37
-2.645 -4.116 -1.596 0.27
-2.632 -4.124 -1.596 0.43
-2.619 -4.119 -1.592 0.39
-2.607 -4.128 -1.593 0.36
-2.588 -4.127 -1.589 0.4
-2.569 -4.125 -1.585 0.38
-2.556 -4.134 -1.585 0.37
-2.544 -4.143 -1.586 0.44
-2.527 -4.143 -1.582 0.31
-2.519 -4.145 -1.582 0.43
-2.515 -4.168 -1.588 0.4
-2.484 -4.147 -1.576 0.39
-2.479 -4.167 -1.581 0.34
-2.455 -4.157 -1.574 0.48
-2.428 -4.14 -1.564 0.34
-2.414 -4.146 -1.563 0.38
-2.398 -4.134 -1.556 0.43
-2.384 -4.14 -1.556 0.3
-2.368 -4.141 -1.553 0.46
-2.352 -4.143 -1.551 0.38
-2.33 -4.134 -1.545 0.43
-2.318 -4.144 -1.546 0.43
-2.303 -4.132 -1.539 0.32
-2.26 -4.084 -1.517 0.36
-2.234 -4.068 -1.508 0.39
-2.233 -4.097 -1.517 0.2
-2.224 -4.11 -1.519 0.57
-2.18 -4.059 -1.496 0.36
-2.152 -4.037 -1.485 0.36
-2.145 -4.039 -1.484 0.29
-2.122 -4.026 -1.476 0.42
-2.128 -4.069 -1.491 0.33
-2.081 -4.009 -1.464 0.36
-2.075 -4.027 -1.469 0.44
-2.055 -4.02 -1.464 0.37
-2.051 -4.043 -1.47 0.29
-2.057 -4.072 -1.48 0.42
-2.05 -4.09 -1.485 0.39
-2.038 -4.098 -1.486 0.43
-1.99 -4.032 -1.457 0.34
-2.012 -4.109 -1.485 0.36
-1.972 -4.059 -1.463 0.43
-1.938 -4.021 -1.446 0.34
-1.921 -4.002 -1.437 0.38
-1.913 -4.017 -1.441 0.36
-1.899 -4.021 -1.44 0.29
-1.908 -4.073 -1.458 0.38
-1.896 -4.081 -1.458 0.36
-1.903 -4.13 -1.475 0.41
-1.905 -4.17 -1.488 0.35
-1.875 -4.12 -1.468 0.43
-1.853 -4.107 -1.46 0.33
-1.832 -4.093 -1.453 0.38
-1.818 -4.097 -1.453 0.38
-1.784 -4.055 -1.434 0.34
-1.768 -4.051 -1.431 0.39
-1.732 -4.003 -1.41 0.36
-1.714 -3.978 -1.4 0.4
-1.729 -4.048 -1.424 0.3
-1.691 -3.992 -1.401 0.37
-1.659 -3.95 -1.383 0.33
-1.673 -4.02 -1.408 0.36
-1.666 -4.04 -1.413 0.38
-1.631 -3.989 -1.392 0.36
-1.63 -4.005 -1.397 0.39
-1.651 -4.095 -1.429 0.35
-1.617 -4.047 -1.409 0.32
-1.553 -3.92 -1.359 0.33
-1.584 -4.038 -1.402 0.4
-1.616 -4.159 -1.445 0.28
-1.643 -4.27 -1.485 0.36
-1.623 -4.237 -1.472 0.32
-1.567 -4.127 -1.429 0.28
-1.52 -4.04 -1.394 0.2
-1.461 -3.919 -1.347 0.52
-1.519 -4.117 -1.419 0.31
-1.529 -4.188 -1.444 0.44
-1.48 -4.089 -1.406 0.26
-1.417 -3.931 -1.346 0.32
-1.404 -3.936 -1.346 0.36
-1.4 -3.963 -1.355 0.38
-1.384 -3.957 -1.351 0.36
-1.377 -3.979 -1.357 0.3
-1.343 -3.919 -1.333 0.36
-1.372 -4.047 -1.379 0.46
-1.422 -4.219 -1.442 0.29
-1.37 -4.105 -1.398 0.27
-1.306 -3.953 -1.341 0.41
-1.328 -4.064 -1.38 0.34
-1.273 -3.935 -1.331 0.23
-1.259 -3.933 -1.329 0.49
-1.256 -3.944 -1.332 0.22
-1.232 -3.912 -1.319 0.29
-1.303 -4.19 -1.419 0.43
-1.223 -3.972 -1.338 0.32
-1.234 -4.054 -1.367 0.22
-0.968 -3.196 -1.052 0.25
-0.946 -3.161 -1.038 0.38
-0.934 -3.135 -1.028 0.4
-0.918 -3.116 -1.02 0.34
-0.91 -3.126 -1.022 0.44
-0.893 -3.105 -1.014 0.36
-0.88 -3.096 -1.009 0.42
-0.876 -3.12 -1.017 0.32
-0.859 -3.096 -1.007 0.48
-0.854 -3.095 -1.007 0.36
-0.847 -3.11 -1.011 0.32
-0.834 -3.099 -1.006 0.46
-0.821 -3.09 -1.002 0.38
-0.814 -3.104 -1.006 0.39
-0.805 -3.108 -1.007 0.34
-0.792 -3.098 -1.002 0.42
-0.79 -3.13 -1.013 0.41
-0.778 -3.105 -1.003 0.41
-0.77 -3.115 -1.006 0.41
-0.767 -3.143 -1.015 0.36
-0.753 -3.129 -1.009 0.42
-0.744 -3.137 -1.011 0.39
-0.738 -3.156 -1.017 0.39
-0.73 -3.142 -1.012 0.41
-0.723 -3.155 -1.016 0.29
-0.716 -3.174 -1.022 0.43
-0.704 -3.164 -1.017 0.39
-0.696 -3.177 -1.021 0.34
-0.689 -3.192 -1.026 0.45
-0.675 -3.177 -1.02 0.42
-0.671 -3.184 -1.022 0.35
-0.674 -3.251 -1.045 0.53
-0.835 -4.124 -1.356 0.25
-0.872 -4.389 -1.45 0.29
-0.868 -4.44 -1.467 0.31
-0.846 -4.402 -1.453 0.31
-0.791 -4.18 -1.372 0.34
-0.815 -4.349 -1.432 0.34
-0.786 -4.264 -1.401 0.27
-0.805 -4.452 -1.467 0.39
-0.783 -4.41 -1.451 0.34
-0.781 -4.479 -1.475 0.34
-0.751 -4.385 -1.441 0.35
-0.748 -4.454 -1.464 0.26
-0.75 -4.513 -1.485 0.35
-0.735 -4.512 -1.484 0.29
-0.723 -4.529 -1.489 0.36
-0.708 -4.526 -1.487 0.24
-0.691 -4.507 -1.48 0.36
-0.674 -4.491 -1.473 0.45
-0.664 -4.519 -1.482 0.33
-0.659 -4.541 -1.49 0.36
-0.644 -4.535 -1.487 0.35
-0.631 -4.543 -1.489 0.34
-0.615 -4.537 -1.486 0.35
-0.598 -4.517 -1.478 0.34
-0.587 -4.539 -1.486 0.34
-0.57 -4.522 -1.479 0.3
-0.565 -4.536 -1.484 0.36
-0.546 -4.503 -1.471 0.33
-0.535 -4.532 -1.481 0.34
-0.522 -4.542 -1.484 0.29
-0.508 -4.547 -1.485 0.35
-0.49 -4.515 -1.473 0.27
-0.486 -4.54 -1.482 0.36
-0.47 -4.532 -1.478 0.34
-0.455 -4.517 -1.472 0.32
-0.441 -4.522 -1.474 0.34
-0.421 -4.457 -1.451 0.31
-0.414 -4.545 -1.481 0.34
-0.395 -4.486 -1.46 0.37
-0.39 -4.509 -1.468 0.28
-0.378 -4.541 -1.478 0.33
-0.362 -4.519 -1.47 0.31
-0.349 -4.539 -1.477 0.36
-0.331 -4.489 -1.459 0.3
-0.317 -4.483 -1.457 0.27
-0.306 -4.546 -1.478 0.35
-0.3 -4.552 -1.48 0.29
-0.286 -4.562 -1.484 0.41
-0.265 -4.452 -1.445 0.28
-0.256 -4.54 -1.475 0.34
-0.242 -4.548 -1.478 0.27
-0.228 -4.558 -1.481 0.36
-0.213 -4.549 -1.478 0.29
-0.207 -4.559 -1.481 0.35
-0.192 -4.558 -1.48 0.3
-0.178 -4.553 -1.478 0.36
-0.163 -4.553 -1.478 0.3
-0.149 -4.563 -1.482 0.36
-0.135 -4.545 -1.475 0.3
-0.121 -4.555 -1.478 0.36
-0.113 -4.555 -1.478 0.3
-0.099 -4.553 -1.478 0.36
-0.085 -4.548 -1.476 0.29
-0.07 -4.561 -1.48 0.35
-0.056 -4.547 -1.475 0.31
-0.042 -4.562 -1.48 0.36
-0.027 -4.556 -1.478 0.29
-0.02 -4.549 -1.476 0.29
-0.006 -4.558 -1.479 0.44
0.008 -4.549 -1.476 0.29
0.023 -4.562 -1.48 0.35
0.037 -4.558 -1.479 0.34
0.051 -4.562 -1.48 0.34
0.065 -4.55 -1.476 0.3
0.073 -4.554 -1.478 0.37
0.087 -4.556 -1.478 0.32
0.101 -4.542 -1.474 0.33
0.115 -4.547 -1.476 0.34
0.13 -4.558 -1.48 0.34
0.144 -4.554 -1.478 0.29
0.159 -4.555 -1.479 0.36
0.165 -4.548 -1.476 0.3
0.18 -4.553 -1.478 0.36
0.194 -4.552 -1.478 0.29
0.209 -4.552 -1.478 0.36
0.223 -4.549 -1.478 0.3
0.238 -4.556 -1.48 0.35
0.251 -4.542 -1.476 0.26
0.258 -4.538 -1.474 0.4
0.274 -4.567 -1.485 0.32
0.287 -4.54 -1.476 0.28
0.301 -4.543 -1.477 0.43
0.317 -4.566 -1.486 0.29
0.33 -4.548 -1.48 0.36
0.341 -4.506 -1.465 0.32
0.353 -4.56 -1.484 0.35
0.366 -4.54 -1.478 0.31
0.381 -4.546 -1.48 0.35
0.396 -4.554 -1.484 0.32
0.408 -4.529 -1.475 0.32
0.423 -4.542 -1.48 0.36
0.431 -4.549 -1.483 0.34
0.446 -4.548 -1.483 0.35
0.458 -4.533 -1.478 0.3
0.475 -4.551 -1.485 0.36
0.487 -4.532 -1.479 0.34
0.502 -4.534 -1.48 0.32
0.517 -4.542 -1.484 0.22
0.521 -4.517 -1.475 0.42
0.537 -4.525 -1.478 0.39
0.553 -4.536 -1.483 0.3
0.566 -4.531 -1.482 0.37
0.58 -4.521 -1.479 0.34
0.595 -4.527 -1.482 0.33
0.608 -4.518 -1.479 0.32
0.616 -4.52 -1.48 0.28
0.632 -4.533 -1.486 0.32
0.643 -4.513 -1.479 0.37
0.658 -4.512 -1.48 0.34
0.675 -4.527 -1.486 0.33
0.687 -4.516 -1.482 0.36
0.701 -4.512 -1.482 0.25
0.708 -4.507 -1.48 0.33
0.719 -4.486 -1.474 0.35
0.735 -4.495 -1.478 0.33
0.752 -4.513 -1.485 0.32
0.768 -4.518 -1.488 0.18
0.781 -4.512 -1.486 0.24
0.793 -4.493 -1.48 0.23
0.8 -4.495 -1.482 0.11
0.815 -4.496 -1.483 0.09
0.839 -4.544 -1.501 0.0
0.847 -4.511 -1.49 0.0
0.86 -4.499 -1.487 0.0
0.88 -4.526 -1.498 0.0
1.505 -2.263 -0.834 0.48
1.488 -2.222 -0.819 0.2
1.392 -2.075 -0.757 0.0
1.496 -2.212 -0.817 0.0
2.366 -2.128 -0.997 0.0
3.619 -2.119 -1.351 0.0
3.672 -2.134 -1.37 0.0
3.769 -2.173 -1.406 0.0
3.777 -2.162 -1.407 0.0
3.995 -2.179 -1.476 0.0
4.017 -2.174 -1.482 0.01
4.402 -2.371 -1.634 0.12
4.468 -2.388 -1.657 0.26
4.495 -2.384 -1.665 0.35
4.506 -2.372 -1.666 0.31
4.509 -2.355 -1.664 0.3
4.511 -2.338 -1.662 0.27
4.52 -2.334 -1.664 0.3
4.53 -2.321 -1.666 0.3
4.534 -2.305 -1.664 0.29
4.547 -2.294 -1.666 0.29
4.55 -2.278 -1.665 0.32
4.574 -2.272 -1.672 0.32
4.583 -2.258 -1.672 0.35
4.578 -2.247 -1.669 0.32
4.604 -2.241 -1.676 0.3
4.596 -2.22 -1.67 0.3
4.611 -2.209 -1.674 0.3
4.623 -2.197 -1.676 0.3
4.622 -2.179 -1.672 0.3
4.625 -2.163 -1.671 0.29
4.642 -2.162 -1.676 0.3
4.649 -2.147 -1.676 0.34
4.661 -2.135 -1.678 0.33
4.678 -2.125 -1.682 0.31
4.681 -2.108 -1.681 0.28
4.684 -2.092 -1.679 0.29
4.704 -2.084 -1.685 0.33
4.702 -2.065 -1.681 0.3
4.712 -2.061 -1.684 0.3
4.733 -2.052 -1.689 0.28
4.722 -2.029 -1.683 0.29
4.73 -2.015 -1.683 0.31
4.766 -2.013 -1.695 0.33
4.77 -1.997 -1.694 0.28
4.798 -2.0 -1.703 0.28
4.813 -1.988 -1.707 0.27
4.83 -1.977 -1.711 0.23
4.859 -1.971 -1.719 0.31
4.875 -1.96 -1.723 0.38
4.871 -1.941 -1.719 0.43
4.895 -1.932 -1.726 0.38
4.906 -1.928 -1.729 0.34
4.897 -1.906 -1.723 0.3
4.911 -1.894 -1.726 0.3
4.923 -1.881 -1.728 0.32
4.913 -1.859 -1.723 0.28
4.927 -1.847 -1.726 0.32
4.926 -1.829 -1.723 0.31
4.931 -1.822 -1.724 0.29
4.917 -1.8 -1.717 0.29
4.917 -1.782 -1.715 0.28
4.93 -1.769 -1.717 0.29
4.932 -1.753 -1.716 0.3
4.934 -1.736 -1.715 0.3
4.944 -1.722 -1.717 0.29
4.935 -1.71 -1.712 0.28
4.94 -1.695 -1.712 0.29
4.951 -1.681 -1.714 0.29
4.952 -1.664 -1.713 0.29
4.947 -1.645 -1.709 0.27
4.961 -1.632 -1.712 0.28
4.953 -1.613 -1.707 0.29
4.956 -1.605 -1.707 0.29
4.954 -1.587 -1.705 0.28
4.959 -1.572 -1.705 0.27
4.964 -1.556 -1.705 0.29
4.978 -1.543 -1.708 0.28
4.975 -1.525 -1.705 0.29
4.98 -1.51 -1.705 0.28
4.979 -1.501 -1.704 0.27
4.987 -1.486 -1.705 0.29
4.99 -1.47 -1.705 0.27
4.998 -1.455 -1.706 0.27
4.999 -1.439 -1.705 0.28
5.005 -1.423 -1.705 0.29
5.006 -1.407 -1.704 0.27
5.006 -1.398 -1.703 0.26
5.013 -1.383 -1.704 0.28
5.013 -1.366 -1.703 0.27
5.018 -1.351 -1.703 0.27
5.022 -1.335 -1.703 0.26
5.026 -1.319 -1.703 0.27
5.028 -1.311 -1.703 0.26
5.028 -1.294 -1.701 0.27
5.038 -1.28 -1.703 0.25
5.046 -1.265 -1.705 0.26
5.037 -1.246 -1.7 0.27
5.042 -1.231 -1.701 0.26
5.05 -1.216 -1.702 0.27
5.056 -1.209 -1.703 0.26
5.059 -1.193 -1.703 0.28
5.054 -1.175 -1.7 0.27
5.058 -1.159 -1.7 0.27
5.065 -1.144 -1.701 0.26
5.07 -1.128 -1.702 0.27
5.072 -1.112 -1.701 0.27
5.077 -1.105 -1.703 0.28
5.072 -1.087 -1.699 0.27
5.068 -1.069 -1.697 0.17
5.084 -1.056 -1.701 0.29
5.078 -1.038 -1.698 0.25
5.085 -1.023 -1.699 0.28
5.073 -1.004 -1.694 0.17
5.101 -1.001 -1.703 0.29
5.095 -0.983 -1.7 0.25
5.092 -0.966 -1.698 0.25
5.101 -0.951 -1.7 0.27
5.1 -0.935 -1.699 0.27
5.103 -0.919 -1.699 0.19
5.117 -0.905 -1.703 0.28
5.115 -0.896 -1.701 0.23
5.108 -0.878 -1.698 0.18
5.124 -0.864 -1.703 0.26
5.113 -0.846 -1.698 0.23
5.116 -0.83 -1.698 0.18
5.126 -0.815 -1.701 0.27
5.125 -0.807 -1.7 0.25
5.126 -0.79 -1.699 0.25
5.117 -0.773 -1.695 0.2
5.135 -0.759 -1.701 0.28
5.131 -0.742 -1.699 0.24
5.138 -0.726 -1.7 0.26
5.147 -0.711 -1.703 0.25
5.145 -0.702 -1.701 0.27
5.128 -0.684 -1.695 0.17
5.151 -0.67 -1.702 0.29
5.142 -0.653 -1.698 0.25
5.125 -0.634 -1.691 0.16
5.148 -0.621 -1.699 0.29
5.153 -0.605 -1.7 0.24
5.149 -0.596 -1.698 0.26
5.152 -0.58 -1.699 0.28
5.148 -0.564 -1.697 0.27
5.148 -0.547 -1.696 0.16
5.169 -0.533 -1.703 0.29
5.152 -0.515 -1.696 0.25
5.161 -0.499 -1.699 0.29
5.16 -0.491 -1.698 0.28
5.159 -0.475 -1.697 0.25
5.159 -0.458 -1.697 0.26
5.157 -0.442 -1.695 0.27
5.162 -0.426 -1.697 0.27
5.159 -0.409 -1.695 0.26
5.159 -0.393 -1.695 0.27
5.174 -0.386 -1.7 0.2
5.17 -0.369 -1.698 0.28
5.163 -0.353 -1.695 0.23
5.168 -0.337 -1.697 0.27
5.171 -0.32 -1.697 0.28
5.168 -0.304 -1.696 0.28
5.179 -0.288 -1.699 0.25
5.153 -0.279 -1.69 0.18
5.178 -0.264 -1.699 0.29
5.175 -0.247 -1.697 0.25
5.168 -0.231 -1.695 0.26
5.163 -0.214 -1.693 0.25
5.173 -0.198 -1.696 0.27
5.182 -0.182 -1.699 0.27
5.176 -0.174 -1.697 0.26
5.173 -0.158 -1.695 0.29
5.179 -0.142 -1.697 0.27
5.172 -0.125 -1.695 0.25
5.182 -0.109 -1.698 0.26
5.178 -0.093 -1.697 0.26
5.173 -0.076 -1.695 0.29
5.179 -0.068 -1.697 0.27
5.169 -0.052 -1.693 0.25
5.188 -0.036 -1.7 0.27
5.175 -0.02 -1.695 0.27
5.181 -0.003 -1.697 0.28
5.096 0.003 -1.709 0.24
5.115 0.019 -1.716 0.16
5.092 0.035 -1.708 0.25
5.099 0.051 -1.711 0.16
5.096 0.067 -1.709 0.26
5.118 0.076 -1.718 0.18
5.101 0.091 -1.711 0.25
5.117 0.108 -1.718 0.16
5.093 0.123 -1.709 0.24
5.124 0.14 -1.72 0.17
5.092 0.155 -1.709 0.25
5.093 0.171 -1.709 0.15
5.095 0.179 -1.71 0.27
5.109 0.196 -1.716 0.16
5.078 0.211 -1.705 0.24
5.104 0.228 -1.714 0.17
5.098 0.244 -1.712 0.24
5.103 0.26 -1.714 0.16
5.089 0.275 -1.709 0.26
5.092 0.284 -1.711 0.16
5.087 0.299 -1.709 0.26
5.101 0.316 -1.715 0.18
5.085 0.331 -1.709 0.25
5.11 0.349 -1.719 0.18
5.085 0.363 -1.71 0.25
5.108 0.381 -1.719 0.18
5.079 0.387 -1.709 0.24
5.106 0.405 -1.719 0.18
5.09 0.42 -1.713 0.14
5.083 0.436 -1.711 0.2
5.097 0.453 -1.717 0.16
5.09 0.468 -1.715 0.26
5.097 0.485 -1.718 0.18
5.087 0.492 -1.715 0.25
5.097 0.509 -1.719 0.17
5.077 0.523 -1.712 0.25
5.09 0.541 -1.718 0.16
5.073 0.555 -1.712 0.24
5.096 0.574 -1.721 0.19
5.071 0.587 -1.713 0.23
5.087 0.597 -1.719 0.18
5.08 0.613 -1.717 0.25
5.089 0.63 -1.721 0.14
5.068 0.644 -1.714 0.26
5.093 0.663 -1.724 0.17
5.07 0.676 -1.716 0.25
5.065 0.684 -1.715 0.16
5.072 0.701 -1.718 0.26
5.072 0.717 -1.719 0.16
5.06 0.732 -1.716 0.27
5.092 0.752 -1.728 0.2
5.057 0.764 -1.716 0.12
5.076 0.783 -1.724 0.18
5.056 0.788 -1.717 0.22
5.076 0.807 -1.725 0.16
5.058 0.821 -1.72 0.25
5.061 0.837 -1.722 0.16
5.044 0.851 -1.716 0.26
5.052 0.869 -1.72 0.16
5.04 0.883 -1.717 0.24
5.045 0.9 -1.72 0.16
5.049 0.909 -1.722 0.27
5.062 0.928 -1.728 0.2
5.041 0.94 -1.721 0.12
5.04 0.956 -1.722 0.2
5.048 0.974 -1.726 0.17
5.032 0.988 -1.721 0.26
5.041 0.998 -1.725 0.15
5.038 1.014 -1.725 0.26
5.048 1.032 -1.73 0.16
5.026 1.044 -1.723 0.24
5.043 1.064 -1.73 0.16
5.021 1.076 -1.724 0.27
5.046 1.098 -1.734 0.21
5.02 1.101 -1.725 0.12
5.024 1.118 -1.728 0.21
5.031 1.136 -1.732 0.16
5.004 1.147 -1.723 0.26
5.033 1.17 -1.735 0.15
5.008 1.181 -1.727 0.26
5.026 1.201 -1.735 0.16
4.998 1.203 -1.726 0.26
5.022 1.225 -1.736 0.18
4.996 1.236 -1.728 0.25
5.0 1.253 -1.73 0.18
4.988 1.267 -1.728 0.25
5.004 1.288 -1.735 0.18
4.98 1.299 -1.728 0.25
4.993 1.31 -1.733 0.16
4.976 1.323 -1.728 0.26
4.972 1.338 -1.728 0.22
4.971 1.355 -1.73 0.16
4.972 1.372 -1.732 0.26
4.979 1.39 -1.736 0.18
4.964 1.403 -1.732 0.25
4.972 1.414 -1.736 0.15
4.961 1.427 -1.733 0.27
4.96 1.444 -1.734 0.21
4.964 1.462 -1.738 0.17
4.949 1.475 -1.734 0.27
4.955 1.493 -1.738 0.19
4.939 1.506 -1.734 0.25
4.951 1.518 -1.739 0.18
4.936 1.53 -1.735 0.25
4.94 1.548 -1.738 0.17
4.931 1.563 -1.737 0.25
4.937 1.582 -1.741 0.18
4.931 1.597 -1.741 0.25
4.927 1.613 -1.741 0.18
4.923 1.62 -1.741 0.23
4.939 1.642 -1.749 0.16
4.922 1.654 -1.744 0.23
4.932 1.674 -1.75 0.18
4.918 1.687 -1.747 0.25
4.924 1.706 -1.751 0.16
4.919 1.713 -1.75 0.25
4.932 1.735 -1.757 0.17
4.907 1.743 -1.749 0.25
4.928 1.768 -1.759 0.18
4.903 1.777 -1.752 0.24
4.916 1.799 -1.759 0.19
4.905 1.813 -1.757 0.23
4.904 1.821 -1.758 0.16
4.897 1.836 -1.757 0.25
4.914 1.86 -1.766 0.19
4.898 1.871 -1.762 0.25
4.902 1.891 -1.766 0.18
4.896 1.906 -1.766 0.25
4.906 1.927 -1.772 0.2
4.887 1.929 -1.766 0.23
4.902 1.953 -1.774 0.16
4.892 1.967 -1.773 0.26
4.899 1.987 -1.778 0.17
4.892 2.002 -1.778 0.24
4.881 2.015 -1.776 0.17
4.883 2.034 -1.779 0.25
4.889 2.046 -1.782 0.18
4.873 2.057 -1.779 0.25
4.874 2.076 -1.782 0.18
4.871 2.092 -1.783 0.13
4.869 2.11 -1.785 0.21
4.875 2.13 -1.79 0.2
4.865 2.144 -1.788 0.25
4.887 2.163 -1.799 0.17
4.856 2.168 -1.789 0.24
4.872 2.193 -1.798 0.17
4.851 2.202 -1.793 0.25
4.86 2.224 -1.799 0.19
4.844 2.236 -1.795 0.25
4.852 2.258 -1.801 0.17
4.839 2.261 -1.797 0.24
4.837 2.278 -1.799 0.18
4.828 2.293 -1.799 0.25
4.848 2.321 -1.809 0.18
4.835 2.334 -1.807 0.25
4.823 2.346 -1.805 0.17
4.805 2.357 -1.801 0.24
4.81 2.368 -1.805 0.18
4.816 2.39 -1.81 0.25
4.817 2.409 -1.813 0.18
4.809 2.424 -1.813 0.24
4.812 2.445 -1.817 0.19
4.796 2.455 -1.814 0.12
4.807 2.471 -1.82 0.18
4.798 2.485 -1.82 0.23
4.805 2.508 -1.826 0.19
4.782 2.515 -1.82 0.12
4.797 2.542 -1.829 0.18
4.761 2.542 -1.817 0.23
4.78 2.571 -1.828 0.18
4.77 2.576 -1.826 0.25
4.766 2.593 -1.828 0.16
4.761 2.61 -1.829 0.26
4.766 2.632 -1.834 0.19
4.749 2.642 -1.831 0.25
4.754 2.664 -1.836 0.19
4.741 2.677 -1.834 0.25
4.743 2.688 -1.837 0.22
4.738 2.705 -1.838 0.18
4.726 2.718 -1.837 0.26
4.732 2.741 -1.843 0.19
4.725 2.757 -1.844 0.25
4.726 2.777 -1.848 0.18
4.713 2.789 -1.846 0.24
4.725 2.806 -1.853 0.19
4.703 2.813 -1.847 0.13
4.699 2.831 -1.849 0.21
4.703 2.853 -1.855 0.14
4.694 2.868 -1.855 0.28
4.694 2.889 -1.859 0.19
4.681 2.9 -1.857 0.24
4.684 2.913 -1.86 0.19
4.672 2.925 -1.859 0.14
4.67 2.945 -1.862 0.21
4.663 2.961 -1.863 0.16
4.649 2.972 -1.861 0.26
4.661 3.001 -1.87 0.18
4.635 3.005 -1.863 0.25
4.641 3.019 -1.867 0.19
4.638 3.038 -1.87 0.12
4.619 3.046 -1.866 0.21
4.634 3.077 -1.877 0.16
4.626 3.093 -1.878 0.26
4.61 3.103 -1.875 0.19
4.602 3.119 -1.876 0.12
4.611 3.135 -1.882 0.2
4.604 3.152 -1.883 0.17
4.585 3.16 -1.879 0.26
4.6 3.191 -1.89 0.17
4.568 3.191 -1.88 0.25
4.578 3.219 -1.889 0.18
4.56 3.228 -1.886 0.25
4.566 3.243 -1.89 0.16
4.557 3.258 -1.891 0.24
4.558 3.28 -1.896 0.2
4.535 3.286 -1.89 0.12
4.542 3.312 -1.898 0.21
4.533 3.327 -1.899 0.18
4.523 3.331 -1.897 0.27
4.529 3.358 -1.904 0.18
4.513 3.367 -1.901 0.25
4.516 3.392 -1.907 0.18
4.502 3.404 -1.906 0.25
4.5 3.424 -1.91 0.18
4.484 3.434 -1.907 0.23
4.492 3.463 -1.916 0.18
4.469 3.456 -1.908 0.25
4.477 3.485 -1.917 0.16
4.453 3.489 -1.911 0.24
4.461 3.518 -1.919 0.18
4.449 3.531 -1.919 0.25
4.455 3.559 -1.927 0.2
4.438 3.568 -1.924 0.12
4.446 3.586 -1.93 0.18
4.415 3.584 -1.922 0.12
4.417 3.609 -1.928 0.18
4.4 3.618 -1.925 0.22
4.398 3.639 -1.929 0.17
4.389 3.655 -1.93 0.24
4.392 3.681 -1.937 0.18
4.385 3.686 -1.936 0.25
4.382 3.707 -1.94 0.18
4.361 3.714 -1.936 0.24
4.36 3.736 -1.941 0.18
4.354 3.755 -1.944 0.25
4.352 3.777 -1.949 0.19
4.329 3.781 -1.943 0.22
4.337 3.8 -1.95 0.19
4.318 3.807 -1.946 0.25
4.327 3.84 -1.957 0.18
4.308 3.847 -1.953 0.25
4.304 3.868 -1.957 0.18
4.282 3.873 -1.953 0.25
4.294 3.907 -1.964 0.19
4.282 3.909 -1.961 0.25
4.267 3.92 -1.96 0.18
4.258 3.936 -1.961 0.25
4.255 3.958 -1.966 0.16
4.249 3.978 -1.969 0.26
4.233 3.987 -1.967 0.16
4.226 4.006 -1.97 0.26
4.222 4.015 -1.971 0.19
4.213 4.032 -1.974 0.13
4.205 4.049 -1.976 0.21
4.199 4.069 -1.979 0.17
4.185 4.081 -1.978 0.26
4.183 4.105 -1.984 0.19
4.166 4.114 -1.982 0.13
4.163 4.124 -1.984 0.2
4.162 4.149 -1.99 0.16
4.144 4.157 -1.987 0.26
4.142 4.181 -1.992 0.19
4.127 4.192 -1.992 0.24
4.126 4.217 -1.998 0.19
4.114 4.218 -1.995 0.12
4.101 4.231 -1.995 0.21
4.09 4.247 -1.996 0.18
4.088 4.272 -2.003 0.27
4.083 4.293 -2.007 0.19
4.063 4.299 -2.003 0.13
4.053 4.316 -2.005 0.21
4.045 4.321 -2.005 0.17
4.037 4.339 -2.007 0.28
4.029 4.358 -2.011 0.22
4.026 4.382 -2.016 0.17
4.007 4.389 -2.013 0.27
4.001 4.41 -2.017 0.23
3.986 4.421 -2.017 0.19
3.983 4.432 -2.019 0.28
3.972 4.448 -2.021 0.22
3.957 4.459 -2.02 0.19
3.949 4.479 -2.023 0.27
3.936 4.493 -2.024 0.23
3.929 4.512 -2.028 0.18
3.914 4.524 -2.028 0.27
3.9 4.537 -2.028 0.23
3.898 4.548 -2.03 0.18
3.892 4.571 -2.035 0.27
3.879 4.584 -2.036 0.23
3.867 4.599 -2.037 0.19
3.849 4.607 -2.035 0.27
3.849 4.637 -2.043 0.22
3.827 4.64 -2.039 0.18
3.827 4.655 -2.043 0.27
3.815 4.67 -2.044 0.24
3.81 4.693 -2.05 0.18
3.794 4.704 -2.049 0.28
3.782 4.72 -2.051 0.24
3.778 4.745 -2.057 0.18
3.764 4.758 -2.058 0.27
3.765 4.775 -2.063 0.22
3.744 4.779 -2.059 0.18
3.747 4.813 -2.069 0.27
3.746 4.842 -2.078 0.25
3.738 4.865 -2.082 0.27
3.727 4.881 -2.084 0.26
3.715 4.897 -2.086 0.27
3.709 4.906 -2.088 0.27
3.704 4.931 -2.094 0.27
3.688 4.943 -2.094 0.27
3.677 4.96 -2.096 0.27
3.666 4.978 -2.099 0.27
3.662 5.004 -2.106 0.24
3.632 4.996 -2.097 0.27
3.633 5.014 -2.103 0.37
3.612 5.019 -2.1 0.29
3.581 5.009 -2.09 0.28
3.566 5.02 -2.09 0.29
3.55 5.032 -2.09 0.27
3.524 5.029 -2.084 0.26
3.513 5.046 -2.087 0.25
3.494 5.036 -2.08 0.18
3.475 5.042 -2.078 0.29
3.456 5.049 -2.076 0.25
3.436 5.053 -2.073 0.25
3.419 5.063 -2.073 0.16
3.404 5.075 -2.073 0.29
3.383 5.078 -2.07 0.25
3.376 5.085 -2.071 0.19
3.369 5.109 -2.077 0.28
3.348 5.112 -2.073 0.25
3.336 5.129 -2.076 0.16
3.319 5.138 -2.075 0.29
3.307 5.154 -2.078 0.25
3.294 5.169 -2.08 0.24
3.278 5.164 -2.075 0.18
3.262 5.174 -2.075 0.29
3.252 5.194 -2.08 0.25
3.235 5.204 -2.08 0.16
3.218 5.212 -2.079 0.29
3.208 5.232 -2.083 0.24
3.195 5.248 -2.086 0.27
3.191 5.26 -2.088 0.23
3.169 5.262 -2.085 0.18
3.153 5.272 -2.085 0.29
3.136 5.282 -2.085 0.25
3.123 5.296 -2.087 0.17
3.107 5.308 -2.088 0.29
3.095 5.326 -2.091 0.25
3.088 5.332 -2.092 0.2
3.071 5.342 -2.092 0.27
3.054 5.351 -2.092 0.22
3.035 5.358 -2.09 0.18
3.02 5.37 -2.092 0.28
3.009 5.39 -2.096 0.24
2.988 5.393 -2.093 0.25
2.98 5.397 -2.093 0.29
2.976 5.43 -2.103 0.28
2.947 5.418 -2.094 0.26
2.942 5.45 -2.103 0.23
2.921 5.451 -2.1 0.17
2.896 5.447 -2.094 0.28
2.891 5.477 -2.103 0.22
2.88 5.479 -2.102 0.18
2.862 5.484 -2.1 0.29
2.843 5.49 -2.099 0.25
2.833 5.514 -2.105 0.27
2.811 5.513 -2.101 0.28
2.798 5.532 -2.105 0.26
2.775 5.529 -2.1 0.3
2.771 5.541 -2.104 0.24
2.752 5.548 -2.103 0.18
2.739 5.565 -2.107 0.29
2.71 5.55 -2.097 0.25
2.699 5.572 -2.103 0.26
2.683 5.584 -2.104 0.26
2.664 5.589 -2.103 0.27
2.658 5.598 -2.105 0.28
2.645 5.617 -2.109 0.26
2.62 5.61 -2.103 0.26
2.602 5.618 -2.103 0.27
2.589 5.637 -2.107 0.29
2.569 5.64 -2.105 0.27
2.556 5.656 -2.108 0.24
2.548 5.664 -2.109 0.23
2.523 5.656 -2.103 0.38
2.516 5.686 -2.112 0.3
2.493 5.684 -2.108 0.18
2.472 5.683 -2.105 0.3
2.457 5.698 -2.107 0.25
2.44 5.709 -2.109 0.28
2.43 5.709 -2.107 0.29
2.424 5.745 -2.118 0.26
2.401 5.742 -2.114 0.28
2.379 5.739 -2.11 0.27
2.364 5.753 -2.113 0.29
2.343 5.754 -2.11 0.25
2.32 5.749 -2.105 0.19
2.316 5.765 -2.11 0.32
2.296 5.768 -2.109 0.25
2.276 5.77 -2.107 0.16
2.262 5.788 -2.111 0.29
2.244 5.797 -2.111 0.23
2.219 5.786 -2.105 0.19
2.207 5.807 -2.11 0.29
2.188 5.814 -2.11 0.25
2.176 5.809 -2.107 0.27
2.158 5.817 -2.107 0.26
2.142 5.829 -2.109 0.25
2.126 5.841 -2.111 0.28
2.105 5.841 -2.109 0.29
2.087 5.851 -2.11 0.33
2.07 5.859 -2.111 0.32
2.059 5.859 -2.109 0.3
2.04 5.864 -2.109 0.29
2.019 5.861 -2.105 0.3
1.998 5.862 -2.103 0.29
1.984 5.881 -2.108 0.27
1.963 5.878 -2.105 0.18
1.949 5.867 -2.099 0.29
1.932 5.878 -2.101 0.25
1.917 5.893 -2.105 0.23
1.897 5.898 -2.104 0.29
1.876 5.895 -2.1 0.3
1.855 5.892 -2.097 0.25
1.834 5.892 -2.095 0.18
1.814 5.89 -2.092 0.29
1.803 5.89 -2.091 0.25
1.783 5.89 -2.089 0.29
1.765 5.896 -2.089 0.26
1.747 5.905 -2.09 0.25
1.721 5.883 -2.08 0.23
1.686 5.832 -2.059 0.32
1.677 5.87 -2.071 0.26
1.657 5.837 -2.058 0.35
1.643 5.856 -2.063 0.3
1.619 5.843 -2.057 0.36
1.604 5.859 -2.061 0.43
1.586 5.866 -2.061 0.4
1.563 5.853 -2.055 0.29
1.551 5.883 -2.064 0.36
1.542 5.886 -2.064 0.38
1.52 5.876 -2.059 0.4
1.499 5.873 -2.056 0.33
1.486 5.898 -2.063 0.47
1.469 5.908 -2.065 0.35
1.44 5.871 -2.05 0.26
1.41 5.831 -2.034 0.23
1.406 5.854 -2.041 0.35
1.388 5.86 -2.042 0.34
1.363 5.837 -2.032 0.28
1.338 5.814 -2.021 0.23
1.321 5.823 -2.023 0.43
1.302 5.822 -2.021 0.34
1.277 5.797 -2.011 0.21
1.264 5.782 -2.005 0.3
1.248 5.793 -2.007 0.37
1.229 5.797 -2.007 0.39
1.207 5.783 -2.001 0.38
1.174 5.713 -1.974 0.32
1.146 5.67 -1.957 0.29
1.121 5.639 -1.944 0.3
1.114 5.65 -1.947 0.27
1.094 5.642 -1.943 0.29
1.082 5.673 -1.953 0.25
1.063 5.673 -1.952 0.2
1.05 5.702 -1.961 0.35
1.034 5.715 -1.965 0.33
1.014 5.705 -1.96 0.36
1.008 5.721 -1.965 0.29
0.993 5.741 -1.971 0.34
0.97 5.716 -1.961 0.38
0.956 5.745 -1.971 0.4
0.938 5.75 -1.971 0.31
0.915 5.72 -1.959 0.36
0.882 5.632 -1.926 0.3
0.875 5.642 -1.93 0.31
0.862 5.677 -1.941 0.4
0.836 5.625 -1.922 0.26
0.825 5.671 -1.937 0.36
0.811 5.703 -1.948 0.43
0.798 5.737 -1.959 0.39
0.772 5.682 -1.938 0.33
0.759 5.722 -1.952 0.39
0.753 5.742 -1.959 0.35
0.716 5.602 -1.907 0.29
0.699 5.608 -1.909 0.32
0.688 5.668 -1.93 0.33
0.662 5.599 -1.904 0.3
0.655 5.695 -1.938 0.38
0.64 5.715 -1.944 0.36
0.615 5.578 -1.894 0.39
0.593 5.542 -1.881 0.31
0.587 5.653 -1.92 0.34
0.583 5.78 -1.965 0.36
0.549 5.632 -1.911 0.35
0.521 5.531 -1.874 0.36
0.521 5.616 -1.905 0.36
0.502 5.606 -1.901 0.35
0.484 5.598 -1.897 0.33
0.471 5.649 -1.915 0.34
0.453 5.648 -1.914 0.34
0.435 5.653 -1.915 0.33
0.417 5.651 -1.914 0.32
0.401 5.667 -1.919 0.32
0.387 5.608 -1.898 0.35
0.369 5.596 -1.893 0.39
0.359 5.713 -1.935 0.3
0.336 5.639 -1.908 0.35
0.313 5.56 -1.879 0.31
0.298 5.591 -1.89 0.38
0.284 5.667 -1.917 0.31
0.276 5.673 -1.919 0.33
0.255 5.614 -1.897 0.34
0.234 5.547 -1.873 0.33
0.218 5.57 -1.881 0.39
0.202 5.625 -1.901 0.28
0.187 5.682 -1.921 0.39
0.167 5.632 -1.903 0.3
0.157 5.589 -1.887 0.32
0.142 5.693 -1.924 0.33
0.123 5.626 -1.9 0.34
0.106 5.665 -1.914 0.34
0.087 5.596 -1.889 0.36
0.07 5.623 -1.899 0.3
0.052 5.645 -1.907 0.37
0.043 5.606 -1.892 0.29
0.024 5.514 -1.859 0.3
0.007 5.559 -1.876 0.41
-0.01 5.695 -1.924 0.29
-0.028 5.787 -1.957 0.37
-0.046 5.785 -1.957 0.34
-0.063 5.6 -1.89 0.34
-0.071 5.557 -1.875 0.32
-0.09 5.658 -1.911 0.27
-0.107 5.631 -1.902 0.45
-0.123 5.537 -1.868 0.3
-0.142 5.602 -1.892 0.33
-0.16 5.606 -1.893 0.29
-0.178 5.647 -1.908 0.4
-0.186 5.594 -1.889 0.3
-0.203 5.572 -1.882 0.3
-0.218 5.517 -1.862 0.34
-0.236 5.518 -1.863 0.42
-0.258 5.651 -1.911 0.35
-0.281 5.754 -1.948 0.32
-0.301 5.805 -1.967 0.27
-0.313 5.852 -1.984 0.34
-0.331 5.843 -1.981 0.36
-0.349 5.844 -1.982 0.36
-0.367 5.826 -1.976 0.33
-0.381 5.769 -1.955 0.36
-0.392 5.657 -1.915 0.29
-0.415 5.723 -1.94 0.29
-0.428 5.78 -1.961 0.41
-0.438 5.67 -1.922 0.3
-0.465 5.791 -1.965 0.33
-0.484 5.795 -1.967 0.35
-0.501 5.784 -1.964 0.33
-0.522 5.809 -1.974 0.37
-0.543 5.839 -1.985 0.41
-0.551 5.831 -1.982 0.34
-0.567 5.801 -1.972 0.3
-0.579 5.733 -1.949 0.34
-0.597 5.735 -1.95 0.37
-0.612 5.705 -1.94 0.33
-0.62 5.611 -1.907 0.36
-0.646 5.681 -1.932 0.39
-0.662 5.665 -1.928 0.34
-0.677 5.715 -1.946 0.33
-0.7 5.76 -1.963 0.38
-0.721 5.783 -1.972 0.36
-0.74 5.783 -1.973 0.31
-0.766 5.846 -1.996 0.25
-0.787 5.862 -2.003 0.3
-0.814 5.925 -2.027 0.34
-0.828 5.954 -2.038 0.36
-0.845 5.942 -2.034 0.39
-0.866 5.958 -2.041 0.42
-0.885 5.957 -2.042 0.21
-0.901 5.933 -2.034 0.32
-0.925 5.966 -2.047 0.39
-0.95 6.002 -2.061 0.29
-0.957 5.988 -2.057 0.29
-0.978 5.999 -2.062 0.32
-0.998 6.0 -2.063 0.29
-1.016 5.997 -2.063 0.3
-1.037 6.005 -2.067 0.29
-1.057 6.009 -2.07 0.29
-1.075 5.998 -2.067 0.28
-1.085 6.0 -2.069 0.28
-1.105 6.006 -2.072 0.29
-1.124 6.001 -2.071 0.27
-1.147 6.017 -2.079 0.27
-1.168 6.025 -2.083 0.31
-1.184 6.01 -2.079 0.29
-1.204 6.012 -2.081 0.29
-1.217 6.025 -2.086 0.29
-1.233 6.008 -2.082 0.28
-1.255 6.017 -2.086 0.27
-1.275 6.019 -2.088 0.28
-1.294 6.016 -2.089 0.27
-1.313 6.014 -2.09 0.27
-1.335 6.023 -2.094 0.27
-1.344 6.021 -2.094 0.27
-1.364 6.018 -2.095 0.22
-1.388 6.038 -2.104 0.32
-1.405 6.024 -2.1 0.3
-1.423 6.018 -2.1 0.32
-1.439 6.001 -2.095 0.28
-1.463 6.016 -2.103 0.26
-1.472 6.014 -2.103 0.3
-1.494 6.022 -2.107 0.29
-1.508 5.997 -2.1 0.27
-1.53 6.004 -2.104 0.26
-1.549 5.999 -2.104 0.27
-1.568 5.997 -2.105 0.25
-1.59 6.003 -2.109 0.28
-1.598 5.995 -2.107 0.3
-1.616 5.987 -2.106 0.28
-1.639 5.996 -2.111 0.27
-1.659 5.998 -2.114 0.27
-1.674 5.977 -2.108 0.26
-1.698 5.991 -2.115 0.28
-1.717 5.988 -2.116 0.3
-1.732 5.966 -2.11 0.3
-1.741 5.963 -2.11 0.27
-1.762 5.965 -2.113 0.26
-1.781 5.96 -2.113 0.27
-1.802 5.965 -2.117 0.25
-1.823 5.964 -2.119 0.28
-1.841 5.957 -2.118 0.2
-1.856 5.94 -2.114 0.3
-1.866 5.937 -2.114 0.25
-1.887 5.94 -2.117 0.26
-1.907 5.938 -2.119 0.21
-1.926 5.932 -2.119 0.18
-1.941 5.917 -2.115 0.31
-1.966 5.929 -2.122 0.25
-1.975 5.926 -2.122 0.24
-1.995 5.925 -2.124 0.28
-2.015 5.92 -2.125 0.25
-2.036 5.921 -2.127 0.35
-2.053 5.911 -2.126 0.31
-2.07 5.901 -2.125 0.26
-2.088 5.893 -2.124 0.27
-2.098 5.889 -2.124 0.27
-2.122 5.899 -2.13 0.23
-2.135 5.878 -2.125 0.18
-2.156 5.877 -2.127 0.29
-2.174 5.87 -2.127 0.25
-2.194 5.866 -2.128 0.16
-2.213 5.863 -2.13 0.28
-2.232 5.856 -2.13 0.25
-2.248 5.872 -2.137 0.25
-2.26 5.847 -2.13 0.31
-2.276 5.835 -2.128 0.27
-2.292 5.821 -2.125 0.2
-2.318 5.833 -2.133 0.28
-2.337 5.827 -2.134 0.25
-2.351 5.809 -2.13 0.25
-2.36 5.806 -2.13 0.29
-2.38 5.802 -2.131 0.2
-2.399 5.798 -2.132 0.28
-2.419 5.793 -2.134 0.25
-2.437 5.786 -2.134 0.27
-2.459 5.787 -2.137 0.23
-2.481 5.788 -2.14 0.28
-2.487 5.777 -2.138 0.29
-2.503 5.764 -2.136 0.28
-2.52 5.753 -2.134 0.27
-2.54 5.75 -2.136 0.27
-2.562 5.75 -2.14 0.26
-2.58 5.744 -2.14 0.17
-2.598 5.734 -2.14 0.28
-2.605 5.727 -2.138 0.25
-2.623 5.718 -2.138 0.19
-2.643 5.715 -2.14 0.27
-2.661 5.707 -2.14 0.24
-2.68 5.7 -2.141 0.26
-2.698 5.692 -2.141 0.27
-2.721 5.694 -2.145 0.25
-2.723 5.676 -2.14 0.18
-2.747 5.679 -2.144 0.29
-2.761 5.664 -2.142 0.25
-2.786 5.668 -2.147 0.25
-2.798 5.648 -2.142 0.18
-2.82 5.649 -2.146 0.29
-2.833 5.63 -2.142 0.25
-2.837 5.615 -2.138 0.2
-2.86 5.618 -2.143 0.28
-2.876 5.606 -2.142 0.25
-2.897 5.604 -2.144 0.26
-2.918 5.601 -2.147 0.27
-2.93 5.58 -2.142 0.27
-2.959 5.593 -2.151 0.25
-2.976 5.583 -2.151 0.29
-2.979 5.567 -2.146 0.3
-2.997 5.559 -2.147 0.25
-3.011 5.543 -2.144 0.18
-3.03 5.537 -2.146 0.29
-3.044 5.521 -2.143 0.25
-3.061 5.51 -2.142 0.27
-3.069 5.505 -2.142 0.27
-3.086 5.494 -2.142 0.27
-3.11 5.497 -2.147 0.27
-3.127 5.487 -2.147 0.3
-3.14 5.469 -2.144 0.25
-3.144 5.436 -2.134 0.11
-3.14 5.389 -2.119 0.0
-3.132 5.356 -2.107 0.0
-3.155 5.358 -2.112 0.0
-3.157 5.322 -2.101 0.0
-3.182 5.327 -2.107 0.0
-3.218 5.349 -2.121 0.0
-3.234 5.337 -2.12 0.0
-3.259 5.34 -2.125 0.11
-3.288 5.369 -2.14 0.19
-3.308 5.365 -2.142 0.25
-3.33 5.362 -2.146 0.28
-3.345 5.348 -2.144 0.29
-3.369 5.349 -2.149 0.25
-3.376 5.324 -2.143 0.29
-3.398 5.322 -2.146 0.28
-3.406 5.297 -2.14 0.27
-3.425 5.309 -2.148 0.27
-3.44 5.295 -2.146 0.29
-3.448 5.271 -2.141 0.27
-3.464 5.259 -2.14 0.26
-3.484 5.254 -2.143 0.26
-3.504 5.248 -2.145 0.25
-3.525 5.243 -2.148 0.28
-3.527 5.228 -2.144 0.29
-3.53 5.198 -2.136 0.29
-3.557 5.203 -2.142 0.27
-3.57 5.187 -2.14 0.27
-3.579 5.165 -2.136 0.27
-3.6 5.16 -2.138 0.27
-3.618 5.151 -2.14 0.26
-3.627 5.147 -2.14 0.26
-3.643 5.136 -2.14 0.27
-3.658 5.123 -2.14 0.27
-3.68 5.119 -2.143 0.26
-3.695 5.106 -2.142 0.29
-3.715 5.1 -2.145 0.27
-3.726 5.081 -2.142 0.18
-3.738 5.081 -2.144 0.28
-3.752 5.067 -2.143 0.23
-3.773 5.062 -2.146 0.19
-3.779 5.037 -2.14 0.27
-3.798 5.029 -2.142 0.25
-3.815 5.019 -2.143 0.19
-3.838 5.016 -2.147 0.26
-3.844 5.007 -2.146 0.19
-3.858 4.993 -2.145 0.25
-3.877 4.986 -2.147 0.19
-3.894 4.975 -2.148 0.24
-3.917 4.972 -2.152 0.18
-3.933 4.961 -2.152 0.25
-3.955 4.956 -2.156 0.18
-3.967 4.955 -2.159 0.25
-3.985 4.946 -2.16 0.22
-4.002 4.935 -2.161 0.2
-4.028 4.935 -2.167 0.27
-4.037 4.915 -2.163 0.29
-4.049 4.898 -2.161 0.37
-4.075 4.899 -2.167 0.41
-4.086 4.895 -2.169 0.3
-4.097 4.878 -2.167 0.37
-4.111 4.864 -2.166 0.27
-4.123 4.846 -2.164 0.31
-4.139 4.835 -2.165 0.37
-4.161 4.829 -2.168 0.36
-4.167 4.806 -2.163 0.38
-4.171 4.795 -2.161 0.37
-4.175 4.769 -2.155 0.27
-4.184 4.749 -2.152 0.28
-4.19 4.726 -2.147 0.1
-4.206 4.714 -2.148 0.09
-4.225 4.705 -2.15 0.08
-4.257 4.711 -2.159 0.08
-4.282 4.724 -2.169 0.19
-4.284 4.697 -2.162 0.17
-4.289 4.672 -2.157 0.26
-4.284 4.638 -2.146 0.21
-4.289 4.613 -2.141 0.12
-4.287 4.582 -2.132 0.18
-4.289 4.556 -2.126 0.05
-4.308 4.562 -2.132 0.04
-4.337 4.563 -2.14 0.14
-4.332 4.529 -2.13 0.22
-4.348 4.518 -2.131 0.18
-4.347 4.488 -2.123 0.24
-4.356 4.469 -2.12 0.1
-4.358 4.443 -2.114 0.14
-4.36 4.431 -2.111 0.04
-4.385 4.429 -2.117 0.16
-4.398 4.414 -2.117 0.11
-4.4 4.388 -2.111 0.19
-4.414 4.374 -2.111 0.19
-4.419 4.353 -2.107 0.27
-4.436 4.341 -2.108 0.24
-4.433 4.325 -2.103 0.18
-4.444 4.309 -2.102 0.28
-4.462 4.299 -2.104 0.22
-4.467 4.277 -2.1 0.18
-4.476 4.259 -2.098 0.26
-4.485 4.241 -2.096 0.24
-4.497 4.225 -2.095 0.18
-4.503 4.217 -2.094 0.26
-4.512 4.199 -2.092 0.23
-4.517 4.177 -2.088 0.2
-4.531 4.164 -2.089 0.26
-4.553 4.157 -2.093 0.19
-4.548 4.127 -2.084 0.25
-4.566 4.117 -2.087 0.18
-4.564 4.103 -2.083 0.24
-4.584 4.095 -2.086 0.2
-4.588 4.073 -2.082 0.25
-4.617 4.072 -2.09 0.2
-4.61 4.04 -2.08 0.0
-4.612 4.017 -2.075 0.0
-4.631 4.007 -2.078 0.0
-4.614 3.98 -2.067 0.03
-4.627 3.966 -2.067 0.15
-4.655 3.965 -2.075 0.16
-4.654 3.939 -2.069 0.26
-4.665 3.923 -2.068 0.19
-4.66 3.894 -2.06 0.13
-4.678 3.884 -2.063 0.21
-4.674 3.868 -2.058 0.17
-4.685 3.852 -2.057 0.27
-4.704 3.844 -2.061 0.2
-4.708 3.822 -2.057 0.12
-4.704 3.794 -2.049 0.21
-4.732 3.792 -2.057 0.2
-4.724 3.762 -2.048 0.13
-4.724 3.75 -2.045 0.21
-4.747 3.743 -2.05 0.2
-4.739 3.713 -2.041 0.25
-4.751 3.698 -2.041 0.19
-4.756 3.678 -2.038 0.12
-4.762 3.659 -2.036 0.2
-4.764 3.637 -2.032 0.16
-4.776 3.634 -2.034 0.26
-4.786 3.618 -2.034 0.18
-4.785 3.594 -2.028 0.23
-4.807 3.587 -2.033 0.18
-4.797 3.556 -2.023 0.25
-4.81 3.542 -2.024 0.17
-4.815 3.522 -2.021 0.24
-4.819 3.513 -2.021 0.18
-4.822 3.493 -2.017 0.13
-4.829 3.474 -2.015 0.21
-4.829 3.451 -2.011 0.17
-4.847 3.442 -2.014 0.26
-4.86 3.427 -2.015 0.22
-4.855 3.401 -2.008 0.17
-4.867 3.398 -2.011 0.26
-4.86 3.371 -2.003 0.22
-4.874 3.358 -2.005 0.17
-4.878 3.338 -2.002 0.26
-4.886 3.321 -2.001 0.19
-4.888 3.3 -1.997 0.25
-4.91 3.292 -2.002 0.18
-4.909 3.28 -1.999 0.25
-4.913 3.26 -1.996 0.18
-4.913 3.239 -1.992 0.25
-4.919 3.22 -1.99 0.23
-4.93 3.206 -1.991 0.18
-4.937 3.188 -1.99 0.26
-4.941 3.169 -1.987 0.23
-4.94 3.157 -1.984 0.18
-4.943 3.137 -1.982 0.27
-4.953 3.122 -1.982 0.22
-4.964 3.107 -1.982 0.17
-4.966 3.086 -1.979 0.26
-4.976 3.071 -1.979 0.21
-4.977 3.05 -1.976 0.17
-4.977 3.039 -1.974 0.26
-4.984 3.022 -1.972 0.22
-4.992 3.005 -1.971 0.18
-4.978 2.976 -1.962 0.27
-5.006 2.971 -1.969 0.23
-5.002 2.947 -1.964 0.18
-5.008 2.93 -1.963 0.27
-5.006 2.918 -1.96 0.22
-5.03 2.911 -1.966 0.18
-5.021 2.885 -1.959 0.27
-5.022 2.864 -1.955 0.16
-5.019 2.842 -1.951 0.26
-5.035 2.83 -1.953 0.21
-5.045 2.815 -1.954 0.18
-5.05 2.807 -1.954 0.27
-5.047 2.785 -1.949 0.22
-5.053 2.767 -1.948 0.18
