# .PCD v0.7 - Point Cloud Data file format
VERSION 0.7
FIELDS x y z intensity label
SIZE 4 4 4 4 4
TYPE F F F F U
COUNT 1 1 1 1 1
WIDTH 1304
HEIGHT 1
VIEWPOINT 0 0 0 1 0 0 0
POINTS 1304
DATA ascii
9.5869865 12.999725 4.5186625 4 2
7.6633353 10.016724 3.3440847 6 2
8.5044575 11.328558 3.1621594 18 2
17.511076 25.361908 2.4226651 26 2
39.709358 59.93985 1.4799383 6 2
15.733006 22.613199 0.47246572 26 2
4.1605425 4.6043653 -0.23354454 13 2
4.3565431 4.9055715 -0.1510285 12 2
4.5423932 5.1902256 -0.039467495 17 2
5.0179987 5.9261274 -0.019829577 8 2
5.831954 7.1873178 -0.049727496 35 2
7.8701887 10.338215 0.13040434 21 2
10.318089 14.125509 0.23673499 4 2
6.7220964 8.4897251 3.3696551 9 2
7.5784159 9.8138323 3.305011 36 2
8.6092787 11.408255 3.179347 4 2
8.9245214 11.899494 2.7819641 56 2
17.43622 25.046698 3.4333465 19 2
17.66543 25.411049 2.426209 4 2
45.33287 68.176712 1.4984273 5 2
15.826438 22.588627 0.47052306 27 2
4.1750689 4.5949798 -0.23372546 12 2
4.3799253 4.9076385 -0.15532382 12 2
4.5589352 5.1795297 -0.039673213 16 2
5.0371003 5.9137716 -0.020066971 8 2
5.8581271 7.176249 -0.050876372 38 2
6.7119784 8.4864178 0.016375298 23 2
7.8342671 10.207407 0.14324953 21 2
10.121205 13.718099 0.26643822 3 2
6.7416716 8.4595642 3.3661618 15 2
7.5648623 9.7228947 3.2896786 25 2
8.7011995 11.466633 3.1930032 7 2
8.9314547 11.82388 2.7750795 20 2
13.588545 18.964777 2.9140456 6 2
31.161489 45.910969 3.3332763 5 2
16.005239 22.685856 1.3830425 2 2
15.925329 22.572044 0.46826783 26 2
4.1869721 4.5815516 -0.23236896 13 2
4.4007378 4.9055624 -0.15824935 12 2
4.572793 5.1647072 -0.038677663 14 2
5.0561595 5.9013491 -0.020300388 9 2
5.8842764 7.1650796 -0.052020662 36 2
6.7345762 8.4598503 0.017402278 28 2
8.7172184 11.484259 -0.016488835 15 2
10.246613 13.809001 0.25610775 7 2
10.052279 13.426315 4.6483626 17 2
7.6319513 9.7554989 3.3007071 13 2
8.7310238 11.429402 3.1904221 27 2
9.1237421 12.030789 2.8044379 13 2
14.315761 19.931236 3.0001361 3 2
31.445642 45.999718 3.3398538 7 2
16.08527 22.639452 1.3821138 3 2
16.029766 22.563395 0.4656989 23 2
4.2014189 4.5720744 -0.23254368 12 2
4.4215722 4.9033947 -0.16117257 12 2
4.5892453 5.1539059 -0.038876329 13 2
5.0751748 5.8888602 -0.020529822 11 2
5.9158106 7.1620426 -0.054875012 36 2
6.7216678 8.3794317 0.027340051 31 2
8.6982269 11.371741 -0.0062244991 17 2
11.970885 16.323156 0.04967327 7 2
10.1834 13.527293 4.6814332 35 2
7.67485 9.7508335 3.3038354 17 2
9.1225443 11.94228 2.7959688 8 2
31.226881 45.309364 5.1933694 20 2
10.240966 13.639618 1.9091388 14 2
45.889244 67.489868 1.4893161 2 2
16.123287 22.537617 0.46379694 27 2
4.2158322 4.5625467 -0.23271537 12 2
4.4450755 4.9051495 -0.16546074 11 2
4.6056604 5.1430469 -0.039071541 14 2
5.0941467 5.8763056 -0.020755298 13 2
5.9392204 7.1465454 -0.055153001 30 2
6.7794056 8.406539 0.019475812 33 2
8.6317835 11.189037 0.012742246 16 2
10.198486 13.452772 4.6693501 10 2
7.6822329 9.6927776 3.2955551 18 2
7.8167653 9.8976574 2.9354923 31 2
10.216929 13.495285 2.9988983 5 2
10.244603 13.541492 2.4537792 22 2
10.247852 13.551064 1.9060187 44 2
10.284893 13.611255 1.3591067 36 2
10.311364 13.655571 0.81072396 32 2
4.2275801 4.549005 -0.23134913 12 2
4.4659653 4.9027882 -0.1683788 12 2
4.6220374 5.1321311 -0.039263323 14 2
5.1130743 5.8636847 -0.020976765 12 2
5.9871788 7.1678452 -0.063145421 32 2
6.7906346 8.3633213 0.02326349 31 2
8.7714977 11.317039 -0.0066078557 18 2
10.316463 13.613087 0.26289052 40 2
7.766264 9.7491055 3.3118629 28 2
7.8465571 9.8717852 2.9344079 34 2
9.1602087 11.827575 2.7870553 33 2
10.264858 13.473936 2.4500268 43 2
10.304412 13.537257 1.9062283 29 2
10.32779 13.576515 1.358567 60 2
10.3517 13.616524 0.8105197 69 2
4.2419128 4.5393863 -0.2315146 12 2
4.4895525 4.9043312 -0.17266241 12 2
4.6383762 5.1211581 -0.039451644 17 2
5.1292305 5.8469353 -0.020165881 13 2
5.9858761 7.1153054 -0.055694193 34 2
6.8043895 8.3242311 0.026373675 39 2
8.7259951 11.167819 0.0082970755 16 2
10.370664 13.594656 0.26135197 70 2
8.2290554 10.359034 3.8810132 31 2
7.8562832 9.8131094 3.3299265 16 2
7.8901348 9.8663034 2.9368572 4 2
9.2190294 11.829902 2.7903304 25 2
10.312725 13.447682 2.4498696 14 2
17.436888 23.968609 2.3711152 12 2
10.381766 13.558196 1.3580755 8 2
10.403077 13.593908 0.80966944 12 2
4.2562122 4.5297179 -0.23167704 13 2
4.5104966 4.9017768 -0.17557536 13 2
4.6546769 5.1101284 -0.03963653 15 2
5.1480556 5.8341923 -0.020379204 13 2
5.9980731 7.083251 -0.052525412 33 2
6.8373942 8.313838 0.024691924 36 2
8.7828989 11.171314 0.0042944057 25 2
10.385587 13.518243 0.26454887 21 2
8.1251488 10.134164 3.82815 33 2
7.9301543 9.8522167 3.3427253 8 2
7.8416038 9.7257528 2.9160423 28 2
8.9695339 11.380349 2.7350955 8 2
32.572506 45.955536 5.2786202 18 2
17.37204 23.698545 2.3606367 22 2
17.740013 24.245186 1.381889 27 2
16.517035 22.459551 0.45518121 27 2
4.2697649 4.5204868 -0.23182856 12 2
4.5299034 4.9001937 -0.17846853 12 2
4.6693144 5.1001525 -0.039799955 16 2
5.1649604 5.8226676 -0.020567803 12 2
6.0105696 7.0568409 -0.050182942 32 2
6.831347 8.2520103 0.031960547 32 2
8.7828503 11.099086 0.010059799 18 2
10.420908 13.482045 0.26476902 4 2
8.2714939 10.28285 3.8718939 17 2
8.0262289 9.9296532 3.3634582 38 2
7.8843946 9.7264814 2.9192483 19 2
9.2344732 11.693053 2.7783287 16 2
16.895288 22.842466 3.2722964 2 2
17.430513 23.628258 2.3589146 7 2
17.873911 24.280771 1.38126 8 2
16.600134 22.432924 0.45359766 25 2
4.2806005 4.5072837 -0.23044184 12 2
4.5536046 4.9014287 -0.18274489 13 2
4.6855412 5.0890145 -0.039978255 15 2
5.18647 5.8138342 -0.021802399 16 2
6.0168738 7.0166559 -0.045285724 35 2
6.8332772 8.1966009 0.037835747 30 2
8.7663631 10.995746 0.019377574 17 2
8.3721199 10.356037 3.8967075 17 2
8.2354927 10.162093 3.4183643 18 2
7.8402381 9.5946207 2.8998685 24 2
8.9987049 11.269876 2.7263334 17 2
32.698833 45.499775 5.2535038 12 2
17.732779 23.89327 2.3723574 3 2
18.138844 24.486797 1.3809397 8 2
16.702238 22.417139 0.45128512 28 2
4.2954955 4.4969888 -0.23060292 11 2
4.5753989 4.8980541 -0.18565857 12 2
4.702538 5.0772591 -0.040161759 15 2
5.2061138 5.8002429 -0.022014307 17 2
6.0381136 6.9959641 -0.044686366 34 2
6.850337 8.1606932 0.040274724 27 2
8.9382315 11.161065 -0.00509967 18 2
12.218747 15.87193 0.061250452 8 2
8.1250553 9.9265175 3.7903612 23 2
8.3692293 10.279011 3.4486837 4 2
7.9073219 9.6203785 2.9079702 7 2
9.1460667 11.397571 2.7461104 14 2
16.811539 22.38497 3.2401788 13 2
12.603482 16.359377 2.0369103 22 2
12.631746 16.404251 1.3625671 12 2
12.632313 16.409355 0.68959814 13 2
4.3096466 4.487134 -0.23075324 12 2
4.5991788 4.8990698 -0.18992992 12 2
4.7186852 5.0660057 -0.040332988 16 2
5.2247758 5.7872314 -0.022212002 17 2
5.9622846 6.8386617 -0.01487555 12 2
6.8289952 8.0729208 0.051656444 25 2
8.9812574 11.143165 -0.0065182298 18 2
12.263884 15.822161 0.061698146 23 2
8.2223177 9.9957352 3.8141448 8 2
8.1736031 9.9292898 3.3773003 87 2
9.1065836 11.258297 3.196502 23 2
12.692917 16.361099 3.3976927 7 2
12.628154 16.27323 2.7084532 26 2
12.63279 16.283981 2.0346818 38 2
12.655534 16.320463 1.3618892 53 2
12.679208 16.358213 0.68951088 64 2
4.3237634 4.4772301 -0.23090053 11 2
4.6202445 4.8960347 -0.19282964 12 2
4.7347932 5.0546966 -0.040500753 18 2
5.2405806 5.7701511 -0.021376414 13 2
5.9392343 6.7585368 -0.0013664274 12 2
6.8755136 8.0825987 0.04657593 18 2
9.0357084 11.14136 -0.0099785253 18 2
12.337554 15.813033 0.058774348 31 2
8.3286161 10.076355 3.8410749 7 2
8.0695772 9.7135649 3.3348799 33 2
9.1323938 11.215904 3.1932991 6 2
12.724925 16.2899 3.3928747 16 2
12.648346 16.185787 2.7035992 45 2
12.684806 16.241198 2.0339324 11 2
12.727983 16.306078 1.3613733 24 2
12.7432 16.331411 0.68844646 25 2
4.3378453 4.4672771 -0.23104478 12 2
4.6413274 4.8929067 -0.19572686 12 2
4.7508616 5.0433307 -0.040665049 16 2
5.2591376 5.7570205 -0.021565996 12 2
5.9469948 6.7228699 0.0027037077 17 2
6.9250302 8.0960836 0.040812541 20 2
9.0326633 11.058183 -0.0031843293 16 2
12.370845 15.746643 0.06059939 27 2
9.2680473 11.322014 4.1752763 14 2
8.1014385 9.6909695 3.3345563 12 2
18.631403 24.445007 5.5099401 2 2
12.675707 16.105354 3.3732009 8 2
8.6852999 10.516104 2.2075591 15 2
18.101671 23.71969 2.3715017 22 2
18.307581 24.013857 1.376942 35 2
15.667572 20.316383 0.52454734 9 2
4.3491359 4.4533963 -0.22964992 11 2
4.6624279 4.8896847 -0.19862114 13 2
4.76689 5.031909 -0.040825881 17 2
5.2748089 5.739841 -0.020721996 15 2
5.9688659 6.7072735 0.0024846715 18 2
6.9344053 8.0528946 0.044665903 24 2
9.0667362 11.027757 -0.0030412429 16 2
12.354447 15.611247 0.068195336 35 2
8.0843592 9.6003265 3.3193398 7 2
9.1400547 11.070683 3.1763592 2 2
12.776251 16.131256 3.3811576 33 2
16.986979 21.998249 2.2957408 13 2
15.765858 20.30747 0.52220935 2 2
4.3631344 4.4433551 -0.22978796 11 2
4.6835446 4.8863697 -0.20151263 14 2
4.7800493 5.0164876 -0.039783381 17 2
5.2932596 5.7265911 -0.020903409 13 2
5.9906821 6.6916008 0.0022703826 18 2
6.9724722 8.0499315 0.041658767 23 2
9.1006899 10.997222 -0.0028899084 13 2
12.310978 15.439735 0.078858815 29 2
9.4574108 11.426878 4.2164764 23 2
8.0840597 9.5338287 3.3093927 15 2
9.1679497 11.0323 3.1738896 8 2
12.792543 16.039873 3.3737288 15 2
8.7050905 10.397532 2.2008066 7 2
17.029514 21.899837 2.2930033 36 2
17.005487 21.871059 1.3712373 11 2
17.018431 21.893272 0.45470175 35 2
4.3743138 4.4294057 -0.22838645 12 2
4.7018623 4.8790617 -0.20303196 14 2
4.7959838 5.0049639 -0.039937124 19 2
5.3116646 5.7132769 -0.02108082 13 2
6.0153332 6.6798415 0.001201549 21 2
7.1094222 8.1831274 0.015300246 22 2
12.377848 15.422091 0.076662801 21 2
9.4807148 11.379801 4.2108731 31 2
8.0891819 9.4753933 3.3012075 27 2
16.081367 20.431433 4.8325233 6 2
19.186892 24.692854 4.5215683 15 2
8.3956451 9.9011269 2.1587293 8 2
17.092159 21.829651 2.2915633 18 2
17.076981 21.81295 1.3705198 37 2
17.063627 21.798658 0.45564681 50 2
4.3882284 4.4192772 -0.22851829 11 2
4.7201686 4.8716798 -0.2045479 15 2
4.8118787 4.9933853 -0.040087413 17 2
5.3271403 5.6959443 -0.020224227 13 2
6.0370536 6.6640067 0.00099661283 20 2
7.1714268 8.2114649 0.0068014162 18 2
9.1594276 10.923784 -0.0010235956 18 2
12.580229 15.589355 0.05887942 37 2
8.4380741 9.8831835 3.8195505 2 2
8.1173019 9.44876 3.3000402 18 2
8.982831 10.628248 3.1112719 7 2
17.227694 21.851053 4.1525931 9 2
8.3751593 9.8048992 2.1520033 16 2
19.627329 25.125933 2.4426465 28 2
17.157135 21.766695 1.3698423 3 2
17.498755 22.235699 0.43473801 24 2
4.3992968 4.405261 -0.22711036 11 2
4.7384624 4.864224 -0.20606096 15 2
4.8277326 4.9817514 -0.040234234 13 2
5.3454385 5.6825128 -0.020393508 15 2
6.0616364 6.6520658 -6.321846e-05 16 2
7.2659836 8.2833424 -0.0092538306 24 2
9.1959248 10.896964 -0.0013601551 25 2
12.627042 15.542556 0.059072085 20 2
8.4879208 9.8829374 3.8255408 2 2
8.1453142 9.422039 3.2988799 14 2
9.0532475 10.65018 3.1193929 7 2
15.435351 19.274908 3.8172283 2 2
8.3600206 9.7169456 2.1460018 27 2
15.281829 19.073833 2.1700594 8 2
15.295413 19.095289 1.3640862 3 2
17.616182 22.236038 0.43172389 25 2
4.4131265 4.3950448 -0.22723597 11 2
4.7567444 4.8566937 -0.20757078 16 2
4.8435459 4.9700623 -0.040377576 11 2
5.3607788 5.6650829 -0.019528393 18 2
6.0803289 6.6321111 0.00060092827 17 2
7.3316255 8.3148632 -0.018435884 30 2
9.1730623 10.790125 0.0085755326 24 2
12.664742 15.483601 0.060294751 16 2
15.323143 18.985771 4.601295 24 2
15.265681 18.911741 3.7747519 28 2
8.3234901 9.6012192 2.1375165 3 2
15.343439 19.021887 2.1692986 38 2
15.351224 19.035172 1.3634837 39 2
15.345298 19.029987 0.56148696 29 2
4.4269209 4.3847814 -0.22735858 10 2
4.7721434 4.845232 -0.20770748 14 2
4.85642 4.9544249 -0.039317094 11 2
5.3760452 5.6476111 -0.018659167 13 2
6.1018829 6.6160502 0.00041023205 17 2
7.3590403 8.2944269 -0.018678144 31 2
9.1852741 10.731386 0.012364093 21 2
12.645398 15.348664 0.067979969 28 2
15.107084 18.559225 6.1636763 7 2
8.2276287 9.403759 3.3044615 9 2
15.333613 18.866741 4.5880728 8 2
8.1196938 9.2627621 2.493855 5 2
8.4179935 9.6613436 2.144722 10 2
19.754574 24.763933 2.4325233 10 2
15.421789 18.994884 1.3629339 17 2
15.415944 18.989616 0.56058985 46 2
4.4406796 4.3744693 -0.22747815 11 2
4.7875028 4.8337164 -0.20784082 14 2
4.872138 4.942636 -0.039453361 10 2
5.3912363 5.6300969 -0.01778583 11 2
6.1204224 6.5959768 0.0010841554 18 2
7.3715 8.2541056 -0.015476636 22 2
9.3856115 10.923026 -0.016185045 23 2
12.676278 15.281783 0.069909632 26 2
13.307888 16.052351 5.5020452 2 2
8.2673244 9.3923883 3.3068235 5 2
19.545408 24.302643 5.5643201 6 2
8.1440916 9.2319584 2.4925342 28 2
8.4979544 9.7010298 2.1501484 22 2
18.193468 22.524294 2.3324671 3 2
45.61956 58.802059 1.4366838 7 2
4.454402 4.3641095 -0.22759466 12 2
4.8028216 4.8221469 -0.20797072 14 2
4.887815 4.9307923 -0.039586172 11 2
5.4093037 5.6164417 -0.017938683 10 2
6.14185 6.5797763 0.00090307707 18 2
7.4046836 8.2414265 -0.01708151 32 2
9.4010706 10.867673 -0.012897745 24 2
12.697781 15.202948 0.072871462 25 2
10.356544 12.068821 4.4393468 9 2
9.8346682 11.385588 3.7574255 15 2
9.1542902 10.494028 3.1090355 14 2
8.1532898 9.1813164 2.4885709 4 2
8.505744 9.6450529 2.1470323 7 2
19.980621 24.712097 2.434552 7 2
45.540833 58.278088 1.4343073 6 2
18.05151 22.184128 0.42179567 26 2
4.4680886 4.3537021 -0.22770815 11 2
4.8181005 4.8105245 -0.20809726 14 2
4.9034505 4.9188938 -0.039715502 12 2
5.4243584 5.5988321 -0.017056715 10 2
6.1632209 6.5635014 0.00072673656 17 2
7.413815 8.1971149 -0.013178611 36 2
12.655249 15.040918 0.082983017 24 2
10.396463 12.038378 4.4390192 4 2
9.8603048 11.34126 3.7536156 4 2
9.1919088 10.471546 3.1094549 17 2
8.2318287 9.2214375 2.4968016 26 2
18.983881 23.236406 3.3716822 19 2
18.3951 22.471273 2.334111 2 2
45.702446 58.072758 1.432574 6 2
18.145401 22.150082 0.42018142 25 2
4.4810567 4.3437705 -0.22781312 12 2
4.8347392 4.8038368 -0.20957863 13 2
4.9174867 4.9081388 -0.039828911 10 2
5.4405227 5.586442 -0.01718718 12 2
6.1854053 6.5526977 -0.00028813755 17 2
9.2153263 10.483792 0.029699257 21 2
12.682738 14.982084 0.084655151 33 2
10.432299 12.010859 4.4387317 6 2
9.8850069 11.303663 3.75072 32 2
9.2078562 10.428076 3.1056917 8 2
8.2043571 9.1296749 2.4870491 15 2
8.4745884 9.4804344 2.1358688 19 2
20.088474 24.522398 2.4301753 33 2
46.038719 58.135742 1.4315003 7 2
18.240866 22.133348 0.41814223 24 2
4.4910879 4.3300271 -0.22637782 11 2
4.8499541 4.7921028 -0.20969881 15 2
4.933043 4.8961368 -0.039951615 10 2
5.4584379 5.5726156 -0.017328326 16 2
6.2066817 6.5362706 -0.00045553083 20 2
7.3892922 8.0597448 0.0036142552 23 2
9.3903618 10.63767 0.0057859141 19 2
12.846416 15.088854 0.071677916 27 2
12.678693 14.816293 5.2081642 20 2
8.6981144 9.70117 3.3959944 3 2
8.2007122 9.0633383 2.4809899 30 2
8.4629202 9.4011631 2.130645 12 2
20.107586 24.37487 2.425714 6 2
46.248604 57.992088 1.4299629 5 2
18.347008 22.114304 0.41589054 20 2
4.5060101 4.3184361 -0.22649266 10 2
4.8695941 4.7829304 -0.21119767 14 2
4.9530869 4.886703 -0.041283626 11 2
5.4780884 5.5573349 -0.017478943 15 2
6.2330475 6.5220008 -0.0014947305 23 2
7.4611044 8.0917149 -0.0062424093 24 2
9.346776 10.501422 0.019366099 20 2
11.597339 13.374464 0.21580537 6 2
12.71189 14.747047 5.2004204 27 2
8.9062376 9.8947239 3.4456053 3 2
10.458933 11.875844 3.3763764 24 2
8.2824602 9.1004658 2.4892142 23 2
8.4784698 9.3510799 2.1282535 5 2
8.3740692 9.2184582 1.729244 23 2
46.524281 57.891033 1.428424 6 2
18.460762 22.088867 0.41359764 18 2
4.519537 4.3078494 -0.22659385 10 2
4.8847356 4.7710748 -0.21131079 14 2
4.9685683 4.874577 -0.041399118 11 2
5.4959016 5.5433779 -0.017611666 12 2
6.2542171 6.5054078 -0.0016522255 17 2
7.411252 7.9734716 0.010765297 31 2
8.7239647 9.6372614 0.12912551 13 2
12.737395 14.730875 0.09468998 20 2
12.624677 14.535812 5.1529393 7 2
10.070606 11.302567 3.7699654 18 2
10.482974 11.825485 3.3725727 15 2
8.3461828 9.1199493 2.494818 34 2
18.145557 21.531828 3.2366495 10 2
8.3827324 9.1671505 1.7277521 3 2
46.83564 57.87513 1.427202 3 2
18.567041 22.068823 0.41137734 23 2
4.5294085 4.2940111 -0.22514959 10 2
4.8983278 4.7603598 -0.21140969 14 2
4.9854712 4.8674283 -0.042701438 12 2
5.5118918 5.5307631 -0.017727681 11 2
6.2701664 6.486547 -0.00092919421 13 2
7.4625001 7.9898014 0.0043997043 27 2
8.7527666 9.6145153 0.12891744 12 2
11.561947 13.154734 0.22845295 2 2
12.76256 14.620024 5.1850815 13 2
8.9617367 9.8384705 3.4434061 6 2
10.453583 11.716188 3.3575666 11 2
8.3576279 9.079196 2.4919782 19 2
18.400549 21.717999 3.2578626 2 2
20.318645 24.132767 2.42171 57 2
20.339855 24.160357 1.3684758 33 2
18.665848 22.054296 0.40922502 21 2
4.5421786 4.2838769 -0.22524005 11 2
4.9133906 4.7484045 -0.21151635 15 2
5.0039053 4.8589897 -0.044011876 13 2
5.5296121 5.5166883 -0.017852772 12 2
6.2881455 6.4659715 -0.0002168143 12 2
7.4270711 7.891438 0.017982861 32 2
12.847327 14.675546 0.092316762 24 2
9.0524635 9.8858023 3.4598005 27 2
10.560463 11.770302 3.3727486 11 2
8.6856298 9.4281445 2.5425754 16 2
19.751898 23.255793 3.4030526 35 2
20.319639 23.965836 2.4164298 19 2
20.41913 24.090748 1.3678968 32 2
18.769138 22.029434 0.40720037 13 2
4.5562534 4.2726274 -0.22533685 11 2
4.929162 4.7357945 -0.21162465 14 2
5.0261254 4.8536472 -0.046525702 14 2
5.5481653 5.5018435 -0.017979797 12 2
6.3070846 6.4445028 0.00049364235 15 2
7.5007939 7.9275727 0.0074694147 23 2
9.266552 10.120767 0.054393001 19 2
12.855592 14.579432 0.096730039 29 2
9.7931747 10.734484 4.1376057 2 2
9.0432596 9.8048401 3.447324 4 2
10.598315 11.733594 3.3717687 2 2
8.7337427 9.4214106 2.545001 10 2
20.470325 23.977364 3.4746137 12 2
20.511938 24.029303 2.4220061 18 2
18.876219 22.001085 0.40516627 7 2
4.5666361 4.2581601 -0.22388782 10 2
4.944139 4.7237315 -0.21172428 15 2
5.050633 4.8526001 -0.050232682 13 2
5.5657849 5.4876418 -0.018096644 13 2
6.3217936 6.4199896 0.0020772554 18 2
7.5361938 7.9181075 0.0052314289 27 2
9.2189188 9.9930458 0.067547157 23 2
12.907936 14.543592 0.096065156 17 2
9.7575932 10.618683 4.1132989 4 2
12.11986 13.527775 4.305068 5 2
8.7584133 9.3886824 2.5437403 59 2
20.334885 23.644329 3.4495728 12 2
38.406296 45.898083 3.4445443 15 2
18.995323 21.994682 0.40233728 27 2
4.5799518 4.2473621 -0.22397375 11 2
4.959074 4.7116165 -0.21182053 14 2
5.0721164 4.8476672 -0.052734923 10 2
5.5833545 5.4733796 -0.018209491 13 2
6.3394985 6.3992677 0.0028048693 15 2
7.587235 7.9276891 -0.00044478412 31 2
9.2050428 9.9081955 0.075053141 23 2
9.7801199 10.575156 4.1088901 4 2
10.762403 11.776305 3.9112623 29 2
10.694777 11.693614 3.3754804 7 2
8.8836679 9.4790516 2.5594134 28 2
20.377333 23.532579 3.4448035 10 2
38.108582 45.212551 3.4175081 7 2
18.962738 21.802036 0.40755334 17 2
4.5932302 4.2365179 -0.22405666 11 2
4.9770107 4.7031722 -0.21328461 14 2
5.096683 4.8463945 -0.056435823 11 2
5.6008744 5.4590559 -0.01831831 15 2
6.3571172 6.3784957 0.0035374137 12 2
7.6101561 7.9025373 8.2660576e-05 29 2
9.562932 10.277244 0.021840636 24 2
12.803361 14.216888 0.11725952 20 2
9.0346889 9.5994139 3.8459947 4 2
10.773197 11.710181 3.9031532 3 2
19.936132 22.83514 5.4280787 10 2
8.9274483 9.4688721 2.5613379 25 2
18.852852 21.519075 3.2646728 3 2
20.413572 23.413395 2.4009397 9 2
4.6071315 4.2250819 -0.22414042 11 2
4.9926157 4.6903291 -0.21337846 14 2
5.1220531 4.844368 -0.06013817 12 2
5.6192169 5.4439507 -0.018428253 11 2
6.3756814 6.3568206 0.0042689056 12 2
7.6721215 7.9220595 -0.0076573985 29 2
9.5925407 10.239943 0.022655705 24 2
12.828258 14.14463 0.11968675 17 2
9.0551615 9.5571718 3.8416133 7 2
16.764555 18.84852 5.5580106 18 2
12.980556 14.287598 3.8649859 11 2
8.7283344 9.1625872 2.5225439 24 2
19.072771 21.628502 3.2801933 17 2
20.506786 23.355803 2.4009893 18 2
19.33185 21.938177 0.39525747 17 2
4.6172948 4.2104812 -0.22267863 10 2
5.0074344 4.6780453 -0.21346436 16 2
5.1466899 4.8428526 -0.063832633 13 2
5.6366339 5.429502 -0.01852884 11 2
6.3931241 6.3359447 0.0050115637 14 2
7.6886621 7.8890209 -0.0057405853 28 2
9.6680183 10.261305 0.015767369 22 2
12.927034 14.166333 0.11395851 16 2
9.7447453 10.319118 4.0611749 16 2
12.736972 13.899845 4.4246192 4 2
9.1079893 9.5563755 2.997859 8 2
8.7551861 9.1337814 2.5218444 15 2
19.411556 21.885111 3.3092306 16 2
20.515755 23.205299 2.3965657 17 2
16.82683 18.789284 0.52970332 2 2
4.630444 4.1995072 -0.22275215 10 2
5.0252938 4.6693993 -0.21491833 15 2
5.1744752 4.8449407 -0.068726152 13 2
5.6508603 5.4112406 -0.017593473 12 2
6.4073186 6.311244 0.0066204905 15 2
7.7082267 7.8597531 -0.0045060953 32 2
9.6670475 10.190797 0.021242194 17 2
12.939526 14.084339 0.11744606 22 2
9.7471361 10.253358 4.0505252 18 2
11.11286 11.875958 3.9636724 20 2
9.1010895 9.4846649 2.989265 37 2
8.7467079 9.0630465 2.515337 26 2
19.742697 22.128168 3.3372085 22 2
20.546431 23.081772 2.3934278 26 2
48.990124 56.87339 1.4167137 6 2
16.903503 18.751043 0.52868652 6 2
4.6435547 4.1884875 -0.22282264 10 2
5.0400391 4.657001 -0.21499743 15 2
5.1991935 4.8431754 -0.07241445 15 2
5.6681633 5.3966823 -0.01768594 11 2
6.4245758 6.2902813 0.0073730005 13 2
7.7244682 7.8266554 -0.0025762585 28 2
8.9308176 9.250309 0.14465147 27 2
12.719753 13.728106 0.14550395 37 2
12.650745 13.612095 5.0003366 11 2
9.0233727 9.3300219 2.965241 33 2
8.831049 9.1024733 2.5241663 18 2
19.908056 22.171337 3.3467469 25 2
19.726767 21.95583 2.3428526 14 2
40.492607 46.451588 1.3996867 2 2
16.201324 17.793848 0.56809473 4 2
4.6528997 4.174346 -0.22134814 10 2
5.0540075 4.6451755 -0.21506943 14 2
5.2231779 4.8419428 -0.076095976 13 2
5.6845541 5.3827958 -0.017770048 11 2
6.4375424 6.2663794 0.0089970222 13 2
7.7200327 7.7719836 0.0035010995 23 2
8.9502687 9.2142496 0.14604798 10 2
12.734586 13.656647 0.14835064 47 2
9.6127501 9.9635992 3.9842761 3 2
11.128687 11.740048 3.9466693 9 2
8.9881525 9.230032 2.9510603 32 2
8.8271189 9.0405712 2.5187385 19 2
19.960094 22.087835 3.3442593 6 2
19.768444 21.861364 2.3408732 26 2
19.787722 21.882057 1.3610911 20 2
16.245668 17.729876 0.56847906 5 2
4.6659226 4.1632485 -0.22141261 11 2
5.0686684 4.6326776 -0.21514185 14 2
5.247963 4.839942 -0.07977809 12 2
5.7017574 5.3681202 -0.017854661 13 2
6.454617 6.2453337 0.0097591178 12 2
7.7616501 7.7690129 -6.9870417e-05 25 2
9.708642 10.03814 0.030004697 19 2
12.679949 13.499937 0.15870403 26 2
9.6422062 9.9319954 3.9830711 19 2
11.100152 11.628431 3.9281271 10 2
9.066762 9.2605171 2.9614387 9 2
8.8599739 9.0190077 2.5191238 10 2
20.012266 21.997234 3.3414161 30 2
19.875275 21.835684 2.3423193 28 2
19.8687 21.825874 1.3607455 29 2
16.302521 17.674593 0.56835914 8 2
4.6789064 4.1521058 -0.22147405 10 2
5.0801506 4.6164823 -0.21383908 13 2
5.2727799 4.8378205 -0.083457097 12 2
5.7189097 5.353384 -0.017935235 14 2
6.4716048 6.2242403 0.010526144 12 2
7.8097897 7.7733421 -0.0050139851 32 2
12.735162 13.472178 0.15746872 28 2
9.5308027 9.7375898 3.9358473 21 2
11.145037 11.60278 3.929697 3 2
9.1586246 9.3055353 2.9746284 8 2
8.8765001 8.9785194 2.5168741 11 2
21.441225 23.498093 3.4882054 19 2
19.988686 21.817074 2.3441422 27 2
19.969143 21.792072 1.3604517 25 2
19.98616 21.809259 0.38208908 34 2
4.6918516 4.1409173 -0.22153243 10 2
5.0947113 4.6038933 -0.2139046 13 2
5.2976294 4.8355794 -0.087132894 12 2
5.7360106 5.3385887 -0.018011816 12 2
6.4885058 6.2030983 0.011297983 14 2
9.7883902 9.9955902 0.027640045 20 2
10.022044 10.258885 0.44500628 9 2
9.2832794 9.3892126 3.8447042 14 2
11.248062 11.64377 3.9470053 29 2
9.2216225 9.3164272 2.9815094 34 2
8.9091644 8.9567614 2.5172734 8 2
15.597003 16.630533 2.8469591 7 2
20.098907 21.794167 2.3458009 17 2
20.085999 21.77667 1.360203 23 2
20.080194 21.767279 0.38075855 23 2
4.7047577 4.129684 -0.22158779 11 2
5.1060672 4.5876303 -0.21259482 13 2
5.3225102 4.8332171 -0.090805404 11 2
5.7530594 5.3237338 -0.018084329 14 2
6.5053201 6.18191 0.012074588 13 2
7.8770547 7.7476993 -0.0086821709 26 2
9.8838587 10.037709 0.017709715 29 2
10.072587 10.247885 0.4431558 5 2
9.0689144 9.0830889 3.7650833 7 2
11.280064 11.602758 3.9450965 36 2
9.2782555 9.3195457 2.9869938 25 2
8.9384861 8.9311409 2.5171514 2 2
15.353641 16.240461 2.8144736 3 2
21.254028 22.961243 2.4045827 14 2
20.189775 21.745684 1.3599478 5 2
20.197237 21.75119 0.3782692 23 2
4.7176247 4.1184058 -0.22164007 11 2
5.1205268 4.5749516 -0.21265341 13 2
5.3474212 4.8307328 -0.094474465 13 2
5.7668262 5.3051457 -0.01712051 12 2
6.522047 6.1606741 0.012856163 13 2
7.9090328 7.732801 -0.010163007 27 2
9.904108 9.9934425 0.019637566 32 2
9.0564413 9.0094271 3.7513688 8 2
11.33145 11.583794 3.9484394 10 2
9.318614 9.3038263 2.9889774 26 2
20.855642 22.359863 4.4244299 9 2
21.518114 23.10631 3.4698493 36 2
41.014454 45.161873 3.4754927 5 2
20.307772 21.727055 0.37613213 20 2
4.7304521 4.1070828 -0.22168931 10 2
5.1317568 4.5586219 -0.21133667 13 2
5.3755789 4.8317618 -0.09934283 14 2
5.7837582 5.2901835 -0.017184934 10 2
6.5386863 6.1393919 0.013642532 13 2
7.9048448 7.6770091 -0.0040537557 27 2
9.8647423 9.8821878 0.030850107 34 2
13.508454 13.981879 0.095603324 14 2
9.0565462 8.9505653 3.7418463 4 2
9.3523741 9.2805347 2.9895654 32 2
15.527628 16.219501 3.5605912 5 2
15.578792 16.274488 2.8264589 18 2
41.21286 45.072754 3.4772604 4 2
15.277743 15.92862 0.63402694 5 2
4.7432399 4.095715 -0.22173551 10 2
5.1461153 4.5458536 -0.21138838 12 2
5.4005628 4.8290243 -0.10300526 14 2
5.7973819 5.271512 -0.016212944 11 2
6.5585184 6.121738 0.013571781 13 2
8.0454798 7.7838645 -0.028276643 31 2
9.8843451 9.8380833 0.03279534 27 2
13.622064 14.01427 0.088606253 18 2
9.0693808 8.906374 3.7365146 27 2
12.754598 13.019385 4.3063684 30 2
15.585413 16.174599 3.5609295 12 2
13.340207 13.666501 2.5821695 3 2
15.754609 16.357944 2.0942938 27 2
15.801909 16.407921 1.3515265 2 2
15.348248 15.899121 0.63300115 20 2
4.7559881 4.0843029 -0.22177865 10 2
5.160429 4.5330358 -0.21143666 11 2
5.4288182 4.8297758 -0.10786702 15 2
5.8141966 5.2564435 -0.016269268 14 2
6.5749965 6.1003518 0.014367799 14 2
8.0644169 7.7535772 -0.026982538 30 2
9.9403343 9.8346252 0.029078705 28 2
13.642594 13.942225 0.091182835 17 2
9.3177576 9.1236296 3.8064857 87 2
12.787941 12.969594 4.3036056 24 2
13.213216 13.438788 3.7930322 11 2
13.021771 13.22425 3.1456792 13 2
13.292352 13.521737 2.5721023 2 2
15.789656 16.286106 2.0930357 16 2
15.850611 16.350657 1.351337 39 2
20.726799 21.747999 0.3654483 2 2
4.7686963 4.0728464 -0.22181876 9 2
5.1714735 4.5166006 -0.21010943 15 2
5.4571271 4.8303819 -0.11272542 15 2
5.8309588 5.2413168 -0.016321592 13 2
6.5946918 6.0825715 0.014306565 15 2
8.0499792 7.686543 -0.018786121 30 2
9.9863834 9.8198328 0.026915845 38 2
13.646019 13.851726 0.09547931 30 2
9.239027 8.977294 3.7718854 28 2
19.295229 20.048101 6.0096011 5 2
9.5397854 9.3051605 3.0096045 13 2
12.995652 13.107067 3.1344566 4 2
21.874063 22.874489 3.4734039 33 2
41.555141 44.523029 3.4692843 12 2
15.872181 16.263651 1.3511175 21 2
13.2972 13.428622 0.74065465 2 2
4.7813649 4.0613456 -0.2218558 10 2
5.1856847 4.5036941 -0.21015081 22 2
5.4854898 4.8308434 -0.11758048 16 2
5.8443727 5.2225156 -0.015337326 11 2
6.614325 6.0647225 0.014250066 14 2
8.0918865 7.6819015 -0.022306643 32 2
10.019023 9.7901392 0.026822671 34 2
13.302529 13.381928 0.13497801 42 2
9.2187681 8.8965549 3.7561171 10 2
13.162982 13.207623 4.3793526 13 2
9.5735979 9.2810545 3.0102201 28 2
9.4716444 9.1677999 2.5730612 5 2
22.386049 23.278345 3.5188749 29 2
41.721626 44.398247 3.4695795 9 2
13.340847 13.388626 1.3468354 4 2
13.342309 13.387453 0.74053061 31 2
4.793993 4.0498009 -0.22188979 9 2
5.1998515 4.4907389 -0.21018879 13 2
5.5106244 4.8275819 -0.12122941 15 2
5.8610163 5.2072835 -0.015381542 10 2
6.6338959 6.0468049 0.014198305 12 2
8.0936403 7.6332893 -0.017545298 31 2
13.340801 13.333323 0.13554376 34 2
9.1351194 8.7477131 3.7204895 10 2
13.100141 13.051497 4.3512864 18 2
9.5771513 9.2240477 3.0045323 3 2
9.5219049 9.1621637 2.5761521 30 2
42.385574 44.822872 5.6059241 13 2
13.403742 13.369808 1.9571496 14 2
13.38574 13.347383 1.3467218 36 2
13.39405 13.353476 0.74008095 55 2
4.8033547 4.0347161 -0.22038168 9 2
5.2107105 4.4742012 -0.20885113 12 2
5.5390792 4.8277631 -0.12607744 14 2
5.8742862 5.1884012 -0.014389138 11 2
6.6500611 6.0252037 0.015013365 12 2
8.0951347 7.5847545 -0.012777427 29 2
13.334819 13.237023 0.14056294 30 2
12.986392 12.844868 4.9228992 35 2
13.169206 13.036332 3.7462766 23 2
13.248034 13.11839 3.1531279 19 2
13.377311 13.254745 2.5617073 18 2
13.424697 13.302787 1.9557877 37 2
13.43049 13.305984 1.3466191 36 2
13.4457 13.319296 0.7396419 42 2
4.8158898 4.0230951 -0.22040954 9 2
5.2247739 4.4611588 -0.20888224 11 2
5.5675845 4.8277969 -0.13092208 13 2
5.8908105 5.1730657 -0.01442529 11 2
6.6694937 6.0071621 0.014971086 13 2
8.1233749 7.5652862 -0.013520977 35 2
9.8721781 9.4384289 0.063714974 27 2
13.460981 13.283212 0.13226581 20 2
9.2387352 8.7432909 3.3247666 27 2
13.618063 13.430147 3.8303199 23 2
13.281574 13.066799 3.1514525 32 2
13.397747 13.188021 2.5591364 33 2
13.465802 13.257679 1.9555156 34 2
13.488752 13.279037 1.3465486 29 2
21.197409 21.519096 0.35947177 19 2
4.8283844 4.0114303 -0.22043437 9 2
5.2355051 4.4445577 -0.20753756 11 2
5.592823 4.8241429 -0.13456044 13 2
5.9106269 5.1612415 -0.015490071 11 2
6.6888638 5.9890528 0.014933527 15 2
8.1583357 7.5529294 -0.015637966 28 2
9.9000807 9.4055138 0.064170703 27 2
9.2067661 8.6543989 3.7161262 3 2
9.2098789 8.6556511 3.3098645 17 2
9.2400742 8.6856747 2.9160039 2 2
9.5197105 8.9808216 2.5617111 8 2
13.424698 13.128572 2.5572851 23 2
13.527284 13.234268 1.9563333 21 2
13.546972 13.25184 1.3464887 3 2
21.359797 21.544876 0.35496235 29 2
4.8375745 3.9962604 -0.21891685 10 2
5.2494645 4.4314294 -0.20756178 11 2
5.6214166 4.823895 -0.13939786 14 2
5.9337721 5.152894 -0.017583534 14 2
6.7081704 5.9708762 0.014900711 13 2
8.1830893 7.5296173 -0.015679767 29 2
10.173824 9.6327448 0.027506189 32 2
13.906631 13.576372 0.09656103 32 2
9.2819357 8.6776075 3.7307174 19 2
9.2414331 8.632658 3.3106916 17 2
9.2786112 8.6697359 2.918061 33 2
9.5491066 8.9530783 2.5616634 3 2
13.516557 13.137874 2.562171 16 2
43.173824 44.425018 3.5043218 16 2
54.696499 56.566895 1.4092828 5 2
21.471025 21.51539 0.3529951 22 2
4.8499751 3.9845204 -0.21893555 10 2
5.2633781 4.418252 -0.20758261 11 2
5.6500597 4.8235002 -0.14423183 13 2
5.9535437 5.1408968 -0.018640393 16 2
6.72402 5.9490638 0.015734745 11 2
8.211175 7.5098062 -0.016405279 36 2
10.17838 9.5735807 0.031585693 27 2
13.942014 13.522161 0.09752135 30 2
11.792913 11.255841 4.5001988 3 2
9.2966299 8.6321316 2.9159186 34 2
13.6623 13.206556 3.1897759 35 2
13.601735 13.139472 2.5663595 3 2
43.350609 44.305161 3.505374 13 2
54.788071 56.272732 1.4088641 5 2
21.582289 21.485382 0.35104561 26 2
4.8623347 3.9727373 -0.21895121 10 2
5.2772455 4.4050264 -0.2076 11 2
5.6753964 4.8194513 -0.14785935 14 2
5.9732857 5.1288185 -0.019693242 14 2
6.743187 5.9307652 0.015711403 12 2
8.2392035 7.4898849 -0.017124783 37 2
10.172303 9.503727 0.03722037 18 2
13.935739 13.424657 0.10259493 21 2
9.2468185 8.5287294 3.7024155 26 2
13.572855 13.032843 4.4058561 4 2
9.3281956 8.6087837 2.9165874 14 2
13.751099 13.21104 3.196588 8 2
15.92623 15.471112 2.7999511 4 2
44.811642 45.521175 3.5731409 5 2
55.22131 56.335453 1.4090121 5 2
19.407454 19.07762 0.46025705 2 2
4.8746529 3.9609108 -0.2189638 9 2
5.2910671 4.3917527 -0.20761396 10 2
5.704124 4.8187718 -0.15268598 13 2
5.9896021 5.1131372 -0.019709336 12 2
6.76229 5.9123998 0.015692785 14 2
8.2706146 7.4734182 -0.018528037 32 2
10.027682 9.2908993 0.06349171 23 2
13.897748 13.295064 0.11075643 26 2
9.2710991 8.4985676 3.7013445 29 2
13.874615 13.254696 3.8370221 4 2
9.3705463 8.5940466 2.520921 34 2
24.408806 24.134699 3.660455 38 2
21.946209 21.582878 2.3823988 3 2
55.478252 56.212616 1.4089406 5 2
19.472254 19.015081 0.4602026 39 2
4.88693 3.9490416 -0.21897335 10 2
5.3014946 4.3749804 -0.20625235 10 2
5.7328987 4.817944 -0.15750894 15 2
6.0058641 5.0973992 -0.019721387 11 2
6.7778974 5.8904347 0.016541196 16 2
8.2916393 7.4461627 -0.017855775 30 2
10.034207 9.2361069 0.067079991 28 2
10.336116 9.5432491 0.46521279 3 2
14.067861 13.369181 4.5097194 36 2
9.4118414 8.583005 2.922152 11 2
9.3951321 8.5632601 2.520375 30 2
19.221483 18.646587 3.1244743 3 2
24.363066 23.91643 2.5031161 5 2
19.502146 18.922741 1.3548102 11 2
19.522882 18.938009 0.46083778 21 2
4.8952312 3.9343226 -0.21744026 10 2
5.3138413 4.3629603 -0.20625892 10 2
5.7601924 4.8184609 -0.16232744 15 2
6.0204525 5.0831866 -0.019728793 11 2
6.7949662 5.8738003 0.016532743 15 2
8.3308973 7.4424701 -0.021315498 31 2
10.218251 9.3692255 0.043859504 38 2
10.375044 9.5261793 0.46417421 5 2
9.2071047 8.3289118 3.6657674 11 2
9.3678436 8.4904585 3.307945 33 2
13.861282 13.074245 3.8173478 6 2
9.4342079 8.552887 2.522476 10 2
24.583263 23.994648 2.5106356 2 2
19.549385 18.855566 1.3547732 38 2
22.037867 21.38513 0.34258577 23 2
4.9068074 3.9229801 -0.21744376 10 2
5.3241444 4.3461308 -0.20489052 8 2
5.7890601 4.8173456 -0.16714326 15 2
6.0331783 5.0638547 -0.018700438 15 2
6.8138704 5.8552551 0.01652783 12 2
8.327467 7.3903284 -0.015802786 26 2
10.266768 9.3564434 0.041273568 29 2
10.410103 9.4987402 0.46382535 17 2
9.3061762 8.3755198 3.6877172 11 2
9.385066 8.4528246 3.3053195 30 2
9.3710184 8.4358587 2.9032087 34 2
9.371315 8.4334278 2.5087478 4 2
19.549311 18.734215 2.2488 14 2
22.159887 21.363155 0.34021899 22 2
4.919558 3.9103992 -0.21744445 10 2
5.3350558 4.3286057 -0.20351876 6 2
5.8153205 4.8118773 -0.1707522 16 2
6.0500712 5.0471692 -0.018700697 14 2
6.8301821 5.8322144 0.017390022 11 2
8.3668118 7.3792925 -0.018561956 27 2
9.4345036 8.4500656 0.5619365 5 2
9.3829088 8.3958941 3.7023556 7 2
9.3757334 8.3858662 3.2957141 6 2
9.3474998 8.3546448 2.8926954 29 2
9.3931713 8.3977823 2.5076947 35 2
9.4047766 8.40662 2.1177378 28 2
4.9316587 3.8983743 -0.21744199 10 2
5.352006 4.3185349 -0.20488816 6 2
5.8442655 4.8104696 -0.17556016 16 2
6.0661025 5.0312209 -0.018696807 13 2
6.8489404 5.8135462 0.017394822 11 2
8.4119587 7.3762746 -0.022694563 26 2
9.3928366 8.3514862 3.6971364 33 2
9.364666 8.3204327 3.2861156 36 2
9.3536625 8.306551 2.8884983 20 2
9.4029551 8.3529062 2.505065 33 2
9.4181128 8.3651285 2.1163316 25 2
9.4201136 8.3641987 1.7275025 30 2
9.4372787 8.3783913 1.3396182 36 2
-2.3726048 -2.2288053 -0.21954942 15 4
-0.90719444 -0.56871545 0.28269047 2 4
-0.86391491 -0.51981938 0.31745926 10 4
-0.8394146 -0.49218661 0.34442142 13 4
-0.84721005 -0.5011732 0.36508024 10 4
-0.84132361 -0.49463785 0.38734338 6 4
-0.84814358 -0.50251925 0.40867445 24 4
-0.85663223 -0.51464558 0.59181958 22 4
-0.86401904 -0.52253723 0.57058269 17 4
-0.83219683 -0.48576838 0.53648829 17 4
-0.84810328 -0.50337738 0.51893926 10 4
-0.80153608 -0.44995698 0.48668474 7 4
-0.81644094 -0.46643561 0.46941975 6 4
-0.82770675 -0.47875226 0.45015678 19 4
-0.82862031 -0.47932017 0.42951998 12 4
-2.1748598 -1.9901 -0.24921077 17 4
-2.3803442 -2.2219791 -0.21945015 13 4
-0.90261859 -0.55962443 0.28447372 2 4
-0.86242092 -0.51453602 0.31818983 9 4
-0.84111184 -0.49068803 0.34444317 13 4
-0.8522495 -0.50337571 0.3647418 10 4
-0.84966272 -0.50060457 0.38699433 7 4
-0.85319591 -0.50472671 0.40868485 36 4
-0.86159456 -0.51667821 0.59320831 24 4
-0.86903995 -0.52457714 0.57180309 31 4
-0.83711666 -0.48794901 0.53753686 15 4
-0.84331191 -0.49446115 0.51724833 10 4
-0.80965883 -0.45599607 0.48807123 16 4
-0.82135141 -0.46873057 0.46995127 6 4
-0.82604641 -0.47355807 0.4498418 16 4
-0.83027416 -0.47785419 0.42954114 12 4
-2.1494226 -1.9478451 -0.23691316 14 4
-2.4011004 -2.2296951 -0.22355525 13 4
-0.89798546 -0.55057222 0.28625616 3 4
-0.86419559 -0.51295859 0.31821254 10 4
-0.84611756 -0.49288937 0.34393057 13 4
-0.85730964 -0.50554907 0.36440361 9 4
-0.85471934 -0.50279337 0.38683116 8 4
-0.85493791 -0.50317597 0.40870711 44 4
-0.86657649 -0.51868224 0.59459728 25 4
-0.87408078 -0.52658814 0.57302368 23 4
-0.83880246 -0.48644689 0.53755844 14 4
-0.84829819 -0.49661541 0.5181269 11 4
-0.81453043 -0.45828825 0.48877481 11 4
-0.82296902 -0.46728763 0.46997195 6 4
-0.82768047 -0.4720999 0.44986266 14 4
-0.83192289 -0.47638249 0.42956221 11 4
-2.1626763 -1.9490025 -0.23926839 14 4
-2.4186609 -2.2336624 -0.22660883 12 4
-0.89329529 -0.54155892 0.28803781 5 4
-0.86596471 -0.51137495 0.31823513 11 4
-0.84781718 -0.49136737 0.34395227 12 4
-0.86239022 -0.50769323 0.36406562 10 4
-0.85979652 -0.50495285 0.38666818 11 4
-0.85667455 -0.50161934 0.40872929 48 4
-0.87157798 -0.52065754 0.59598637 20 4
-0.87590176 -0.52495462 0.57304692 30 4
-0.84375024 -0.48858157 0.5386073 12 4
-0.85001379 -0.49507537 0.51814878 10 4
-0.82273388 -0.46423554 0.49016219 11 4
-0.82458162 -0.46583897 0.46999252 6 4
-0.83264804 -0.47434294 0.45021993 13 4
-0.83356643 -0.47490501 0.42958316 10 4
-2.162921 -1.9357322 -0.23674101 15 4
-2.4329877 -2.2339149 -0.22861131 13 4
-0.88854831 -0.53258485 0.28981867 9 4
-0.86772829 -0.50978512 0.31825757 12 4
-0.8495115 -0.48983946 0.34397385 13 4
-0.87084061 -0.51350278 0.36336774 12 4
-0.86489415 -0.50708294 0.3865054 15 4
-0.85840565 -0.50005651 0.40875131 52 4
-0.87659889 -0.52260393 0.59737569 17 4
-0.87446499 -0.51971066 0.57187229 33 4
-0.84871811 -0.49068737 0.53965634 12 4
-0.85502779 -0.49718314 0.51902765 9 4
-0.82765996 -0.46645874 0.49086636 12 4
-0.8261891 -0.46438476 0.47001296 6 4
-0.83428484 -0.47286168 0.45024073 12 4
-0.8352049 -0.47342181 0.42960399 9 4
-2.1696384 -1.9296405 -0.23665565 16 4
-2.4440427 -2.2304869 -0.22956328 16 4
-0.88374466 -0.52365041 0.29159877 10 4
-0.86948633 -0.50818914 0.31827989 10 4
-0.85455281 -0.49197677 0.34346154 12 4
-0.87597466 -0.51557636 0.36303031 17 4
-0.8700121 -0.50918347 0.38634285 24 4
-0.86013132 -0.49848768 0.40877321 37 4
-0.88163906 -0.52452141 0.59876519 14 4
-0.87626195 -0.51807594 0.57189512 30 4
-0.85041344 -0.48914462 0.53967786 14 4
-0.86006188 -0.49926174 0.51990664 9 4
-0.83260667 -0.46865308 0.49157077 13 4
-0.82779157 -0.46292496 0.47003329 6 4
-0.84264517 -0.47874165 0.45093507 10 4
-0.83346599 -0.46824464 0.4294613 8 4
-2.1766686 -1.923219 -0.23656656 12 4
-2.4521735 -2.223057 -0.22946025 14 4
-0.88230705 -0.51829576 0.292501 10 4
-0.87132627 -0.50650674 0.31830323 10 4
-0.85969961 -0.49400645 0.34295052 13 4
-0.88121819 -0.51753819 0.3626942 22 4
-0.87185687 -0.50749487 0.38636619 30 4
-0.8619374 -0.49683401 0.4087961 30 4
-0.88354379 -0.52277672 0.59878927 11 4
-0.8781426 -0.51635271 0.5719189 25 4
-0.85549355 -0.49112585 0.54072827 16 4
-0.86520267 -0.50123125 0.520787 9 4
-0.83765507 -0.47074339 0.49227637 12 4
-0.83283454 -0.46504796 0.47056624 5 4
-0.84775752 -0.48082054 0.45129398 10 4
-0.83516181 -0.46668756 0.42948276 8 4
-2.1800447 -1.9135243 -0.2352621 12 4
-2.4632158 -2.2195385 -0.23041283 13 4
-0.88074803 -0.51304042 0.29340163 10 4
-0.8730728 -0.50489825 0.31832528 10 4
-0.86140305 -0.49243712 0.34297204 13 4
-0.88639247 -0.51955146 0.3623572 27 4
-0.87700254 -0.509547 0.38620389 30 4
-0.8602556 -0.49158335 0.40882859 23 4
-0.88861001 -0.52464652 0.60017902 6 4
-0.87663752 -0.51113605 0.57074326 21 4
-0.85719037 -0.48955935 0.54074967 18 4
-0.87027687 -0.50325024 0.52166641 9 4
-0.84264272 -0.47287863 0.49298117 13 4
-0.83781791 -0.46721494 0.47109839 6 4
-0.85619813 -0.48660496 0.4519892 10 4
-0.83677149 -0.46519884 0.42950308 7 4
-2.1866846 -1.907373 -0.23517837 12 4
-2.4709218 -2.2123964 -0.23031567 12 4
-0.88251692 -0.51140052 0.29342392 15 4
-0.87481374 -0.50328362 0.31834722 10 4
-0.86649221 -0.49449712 0.34246019 14 4
-0.8881852 -0.51788759 0.36237979 24 4
-0.87876087 -0.50791454 0.38622603 25 4
-0.86195171 -0.49000815 0.40884995 19 4
-0.94602251 -0.58290893 0.62344146 10 4
-0.88170731 -0.51305133 0.57196385 16 4
-0.86221272 -0.49157119 0.54179925 17 4
-0.87872589 -0.50884634 0.52340376 9 4
-0.84765047 -0.47498459 0.49368614 14 4
-0.84621298 -0.47299078 0.47214279 5 4
-0.86128098 -0.48868868 0.45234767 9 4
-0.83837599 -0.4637045 0.42952326 6 4
-2.1933026 -1.9011984 -0.23509513 12 4
-2.4786031 -2.2052276 -0.23021908 10 4
-0.88428009 -0.50975436 0.29344609 17 4
-0.87654907 -0.50166297 0.31836906 9 4
-0.87500501 -0.5001511 0.34141544 12 4
-0.89338613 -0.51985288 0.36204296 27 4
-0.88051343 -0.50627601 0.38624805 19 4
-0.86364228 -0.48842701 0.40887117 14 4
-0.94147491 -0.57399124 0.62073243 6 4
-0.89011133 -0.51848298 0.5743832 11 4
-0.86725456 -0.4935537 0.54284894 14 4
-0.88385183 -0.51079452 0.52428371 6 4
-0.85267824 -0.47706121 0.49439135 15 4
-0.8512494 -0.47508717 0.4726755 5 4
-0.86638379 -0.49074271 0.45270631 9 4
-0.8399753 -0.46220461 0.42954335 6 4
-2.1998994 -1.8950008 -0.23501237 13 4
-2.4862592 -2.1980321 -0.23012304 8 4
-0.88603747 -0.50810212 0.29346815 19 4
-0.88168085 -0.50363165 0.31768462 9 4
-0.88014621 -0.50213999 0.34090412 12 4
-0.89517993 -0.51816463 0.36206546 35 4
-0.87882763 -0.50100052 0.38645393 16 4
-0.86532736 -0.48684001 0.4088923 13 4
-0.94346178 -0.57211936 0.62075734 3 4
-0.89855903 -0.52386189 0.57680303 7 4
-0.87231582 -0.49550682 0.54389888 12 4
-0.88899714 -0.51271284 0.52516389 6 4
-0.85772586 -0.4791083 0.49509671 14 4
-0.85972255 -0.48076832 0.47372076 10 4
-0.87150645 -0.49276698 0.45306513 9 4
-0.84156936 -0.46069908 0.42956331 6 4
-2.2031276 -1.8852712 -0.23371062 12 4
-2.49389 -2.19081 -0.23002757 7 4
-0.89118534 -0.5100069 0.29261264 20 4
-0.88341725 -0.50198704 0.31770635 8 4
-0.88530689 -0.50409901 0.34039298 12 4
-0.89696777 -0.51647019 0.36208782 32 4
-0.88055611 -0.49936178 0.38647553 14 4
-0.87045395 -0.48886886 0.40890312 13 4
-9.2070246 -9.29247 4.0367851 28 4
-0.94378901 -0.56793511 0.5924105 3 4
-0.88076472 -0.50097936 0.54597771 11 4
-0.89416152 -0.51460123 0.52604419 6 4
-0.86279309 -0.48112577 0.49580231 12 4
-0.8648113 -0.48279348 0.47425401 8 4
-0.87664878 -0.49476132 0.45342416 10 4
-0.84315813 -0.45918804 0.42958313 6 4
-2.2096689 -1.8790394 -0.23362899 12 4
-2.5014958 -2.1835613 -0.22993267 4 4
-0.89294356 -0.50833058 0.29263458 20 4
-0.88857514 -0.5039081 0.31702211 7 4
-0.89048702 -0.50602818 0.33988205 12 4
-0.89529788 -0.51117009 0.36246884 35 4
-0.87882096 -0.49411023 0.38668066 11 4
-0.87560028 -0.49086779 0.40891409 12 4
-8.5921507 -8.5828848 3.770498 9 4
-0.93904984 -0.55903542 0.59003699 2 4
-0.88587666 -0.5028615 0.54702812 6 4
-0.89934504 -0.5164597 0.52692473 6 4
-0.86445421 -0.47953656 0.495823 10 4
-0.86991972 -0.48478884 0.47478747 8 4
-0.87835664 -0.49312621 0.45344543 11 4
-0.84820342 -0.46127552 0.4297674 6 4
-2.2128167 -1.8692988 -0.23232861 11 4
-0.89469588 -0.50664812 0.29265639 20 4
-0.8937521 -0.50579917 0.31633809 7 4
-0.89568621 -0.50792724 0.33937126 10 4
-0.90052569 -0.5130626 0.36213213 35 4
-0.88052535 -0.49247149 0.38670188 10 4
-0.88076609 -0.49283665 0.40892527 11 4
-8.6354237 -8.5679474 3.7763419 31 4
-0.95107728 -0.5676707 0.59365845 1 4
-0.94869125 -0.56464338 0.56557202 5 4
-0.90454739 -0.51828802 0.52780539 8 4
-0.8695479 -0.48150653 0.4965288 10 4
-0.87159318 -0.48317596 0.47480828 7 4
-0.88005877 -0.49148512 0.45346656 11 4
-0.85326856 -0.46333322 0.42995182 6 4
-2.2193022 -1.8630332 -0.2322481 11 4
-0.9206323 -0.52967352 0.26122239 6 4
-0.8998757 -0.50848711 0.2918011 19 4
-0.89549601 -0.50411248 0.31635973 6 4
-0.89743799 -0.50623244 0.33939302 10 4
-0.90229571 -0.5113495 0.3621541 26 4
-0.87874109 -0.48724422 0.3869063 9 4
-0.88595134 -0.4947753 0.40893665 11 4
-8.6318798 -8.5044184 3.7630332 5 4
-8.8138752 -8.6837673 3.3856299 17 4
-0.94383359 -0.55572301 0.56353796 3 4
-0.90633845 -0.5165509 0.52782756 8 4
-0.87121028 -0.47989368 0.4965494 10 4
-0.87672788 -0.48512346 0.47534192 7 4
-0.87827611 -0.48626292 0.45314935 10 4
-0.85835332 -0.46536103 0.43013644 6 4
-2.2257655 -1.8567449 -0.23216808 11 4
-0.92930335 -0.53487813 0.25914714 7 4
-0.90162849 -0.50678056 0.29182279 19 4
-0.90069836 -0.50595546 0.31567588 6 4
-0.90266269 -0.50808316 0.33888245 10 4
-0.90405977 -0.50963026 0.36217591 12 4
-0.88042152 -0.48560587 0.38692707 8 4
-0.88765842 -0.49311036 0.40895775 10 4
-10.859594 -10.731844 4.6595039 24 4
-8.8407764 -8.6507292 3.384805 27 4
-0.95259112 -0.56084919 0.56562036 2 4
-0.91500813 -0.5218538 0.52956724 6 4
-0.87633008 -0.4818159 0.49725541 13 4
-0.87840247 -0.4834868 0.47536263 8 4
-0.87995428 -0.48462221 0.45317009 10 4
-0.86345762 -0.46735889 0.43032128 5 4
-2.2322068 -1.8504339 -0.23208855 11 4
-0.93801671 -0.54002875 0.25707236 9 4
-0.90683323 -0.50857151 0.29096767 19 4
-0.90591937 -0.50776821 0.31499222 6 4
-0.90790617 -0.50990343 0.33837205 9 4
-0.90931946 -0.51145583 0.36183941 9 4
-0.88209629 -0.48396161 0.38694772 7 4
-0.89286947 -0.4950006 0.40896931 9 4
-10.16049 -9.9244089 3.3287492 24 4
-0.92717558 -0.5306133 0.53216636 5 4
-0.88146889 -0.48370799 0.49796161 14 4
-0.88356304 -0.48538613 0.47589648 7 4
-0.88513064 -0.48652637 0.45352924 10 4
-0.8685813 -0.46932667 0.43050626 5 4
-2.2352068 -1.8406622 -0.23079093 10 4
-0.9123053 -0.51045418 0.26548427 12 4
-0.91552627 -0.51382375 0.28923625 18 4
-0.91115898 -0.50955063 0.31430873 5 4
-0.91316837 -0.51169336 0.33786184 9 4
-0.91811204 -0.51678967 0.36114508 16 4
-0.88376528 -0.48231155 0.38696826 6 4
-0.89457726 -0.49331149 0.40899032 8 4
-8.918087 -8.6085682 3.3915458 15 4
-10.105606 -9.7997322 3.3024044 9 4
-0.93594342 -0.53579473 0.53390718 3 4
-0.88662654 -0.48556992 0.49866796 14 4
-0.88874257 -0.48725516 0.47643054 7 4
-0.89032602 -0.48840019 0.4538886 10 4
-0.87724829 -0.47480726 0.43085673 10 4
-2.2415922 -1.8343186 -0.23071252 10 4
-0.920982 -0.515616 0.26340893 9 4
-0.93122619 -0.52598053 0.28575256 13 4
-0.91641694 -0.51130265 0.3136254 6 4
-0.91844898 -0.51345271 0.3373518 8 4
-0.92694777 -0.52206826 0.36045122 12 4
-0.88896114 -0.48418933 0.38680595 7 4
-0.89981377 -0.49515298 0.4090021 7 4
-8.5430613 -8.1800375 3.6810064 20 4
-8.8316612 -8.4617043 3.3511178 8 4
-10.136328 -9.7621937 3.3017938 9 4
-21.96203 -21.604435 5.7264452 3 4
-0.89530295 -0.49090579 0.5000605 12 4
-0.89394093 -0.48909381 0.47696474 7 4
-0.89554024 -0.49024352 0.4542481 9 4
-0.88242263 -0.47670218 0.43104225 8 4
-2.2479551 -1.8279525 -0.23063461 10 4
-0.92970067 -0.52072358 0.26133403 6 4
-0.92954552 -0.52069741 0.28665099 9 4
-0.92169315 -0.51302415 0.31294224 5 4
-0.92021984 -0.51167852 0.33737347 8 4
-0.93582642 -0.52729142 0.35975781 10 4
-0.8906309 -0.48251531 0.38682637 6 4
-0.9015221 -0.49343967 0.40902299 7 4
-10.477643 -10.053914 4.4478192 4 4
-8.8543015 -8.4252291 3.3490787 3 4
-10.111444 -9.6693125 3.2847016 28 4
-0.99899268 -0.59116131 0.54856241 2 4
-0.90051025 -0.49269482 0.50076735 12 4
-0.89915788 -0.49090189 0.47749913 6 4
-0.90077311 -0.49205628 0.45460778 9 4
-0.88761586 -0.47856668 0.43122795 7 4
-2.2542958 -1.8215644 -0.23055719 10 4
-0.93497825 -0.5223456 0.26030776 5 4
-0.98042917 -0.56725997 0.27440795 6 4
-0.92698747 -0.51471508 0.31225923 5 4
-0.9326055 -0.52036971 0.33580077 9 4
-0.94829869 -0.53596079 0.35870728 8 4
-0.89585203 -0.48434439 0.38666424 6 4
-0.90322441 -0.49172041 0.40904376 7 4
-10.468321 -9.9744625 4.4304523 8 4
-9.0285482 -8.5389671 3.3998446 88 4
-10.096467 -9.5870485 3.2706919 20 4
-20.777666 -20.133703 5.4007902 9 4
-0.90926021 -0.49793285 0.50216067 8 4
-0.90439343 -0.49267948 0.47803369 5 4
-0.90247142 -0.49033689 0.4546285 7 4
-0.88926673 -0.47689474 0.43124804 7 4
-2.2606144 -1.8151541 -0.23048025 10 4
-2.5827742 -2.1308157 -0.23329628 15 4
-0.96127635 -0.54461515 0.27968729 4 4
-0.93229979 -0.51637524 0.31157637 4 4
-0.93795282 -0.52202433 0.33529136 8 4
-0.9572745 -0.54105991 0.35801491 7 4
-0.90109169 -0.48614287 0.38650227 5 4
-0.90849215 -0.49349451 0.40905571 6 4
-8.5975313 -8.0634832 3.6697261 26 4
-9.0825586 -8.5324774 3.4086087 31 4
-10.101976 -9.5255814 3.2628565 27 4
-20.935766 -20.148445 5.4231362 11 4
-0.91451627 -0.49964824 0.502868 5 4
-0.90964729 -0.49442622 0.4785684 4 4
-0.90772909 -0.4921006 0.45498836 6 4
-0.89448506 -0.47871041 0.43143392 7 4
-2.2634315 -1.8053429 -0.22918591 11 4
-2.5831566 -2.1164439 -0.23111069 12 4
-0.94550312 -0.52554119 0.28408897 2 4
-1.0263689 -0.60426205 0.29328611 6 4
-0.95044726 -0.53057957 0.33371985 5 4
-0.96271706 -0.5426259 0.35768029 4 4
-0.90993148 -0.49139467 0.38615832 3 4
-0.92452902 -0.50569814 0.4090423 5 4
-8.6359797 -8.0447474 3.6741745 15 4
-9.1227379 -8.5121498 3.4125712 20 4
-10.271787 -9.6247654 3.303443 12 4
