# .PCD v0.7 - Point Cloud Data file format
VERSION 0.7
FIELDS x y z intensity label
SIZE 4 4 4 4 4
TYPE F F F F U
COUNT 1 1 1 1 1
WIDTH 1310
HEIGHT 1
VIEWPOINT 0 0 0 1 0 0 0
POINTS 1310
DATA ascii
4.6030998 -10.976301 0.91528863 49 3
4.6512895 -10.980532 4.0169492 33 3
4.6462936 -10.991585 3.6156645 24 3
4.6384234 -10.992705 3.2217295 28 3
4.6308942 -10.994811 2.8307774 38 3
4.6208673 -10.988554 2.4407463 29 3
4.6111979 -10.983106 2.0579903 36 3
3.1379848 -6.1018229 1.5143201 7 3
4.593307 -10.977027 1.2927798 37 3
2.82056 -5.1465564 -0.06656871 27 3
3.0362618 -5.8736763 -0.077864356 26 3
3.1989062 -6.4186649 0.0045343041 33 3
3.4970808 -7.422009 0.040472113 24 3
4.2354064 -9.9140625 -0.077494755 12 3
4.5539875 -10.979405 0.14900295 39 3
4.5577273 -10.978171 0.53460962 50 3
4.5646291 -10.987803 0.91589642 54 3
4.6087842 -10.978027 4.0139756 36 3
4.6037021 -10.988978 3.6132047 27 3
4.5957875 -10.990004 3.2197819 31 3
4.5896316 -10.996777 2.8300266 39 3
4.5796008 -10.990472 2.4403441 35 3
4.5699282 -10.984987 2.0579343 51 3
4.5548553 -10.988464 1.2933881 54 3
2.8042221 -5.1513991 -0.066309944 25 3
3.0133324 -5.8653021 -0.073888227 23 3
3.1849492 -6.4482808 -0.00041555124 32 3
3.4934287 -7.5000706 0.027600706 22 3
4.1262784 -9.6624861 -0.03779421 14 3
4.5159044 -10.985474 0.15012382 37 3
4.5182652 -10.979424 0.53591996 31 3
4.5237422 -10.984239 0.91704893 40 3
4.5695443 -10.979475 4.0121675 61 3
4.5629964 -10.985667 3.6107175 45 3
4.5564356 -10.99132 3.2186582 59 3
4.5488262 -10.993297 2.8285699 58 3
4.5415945 -10.996467 2.4404199 50 3
4.5291119 -10.981384 2.0575187 49 3
4.5227189 -10.987161 1.6745142 57 3
4.5167956 -10.994426 1.2939879 38 3
2.7865469 -5.1515684 -0.064656138 22 3
3.002491 -5.8987746 -0.080941118 28 3
3.161376 -6.4449873 0.00202754 31 3
3.4498615 -7.4410186 0.040359929 25 3
4.146153 -9.8525944 -0.064341761 15 3
4.4819441 -11.005735 0.14963019 36 3
4.4802146 -10.985321 0.53686786 17 3
4.4843044 -10.985319 0.91801256 38 3
4.5316992 -10.985435 4.0115547 58 3
4.5223517 -10.9822 3.6082313 61 3
4.5157328 -10.987761 3.2166848 52 3
4.5080829 -10.989658 2.8271139 55 3
4.5008111 -10.992767 2.439487 37 3
4.4883585 -10.977625 2.0571046 36 3
4.4819283 -10.983379 1.6746261 43 3
4.4801159 -11.005055 1.2945726 24 3
2.7714956 -5.1609135 -0.065788679 23 3
2.9598005 -5.8202806 -0.058585111 25 3
3.1365161 -6.4368978 0.0055265608 30 3
3.4255188 -7.4480357 0.040748592 20 3
3.9066558 -9.1335907 0.045085564 10 3
4.4505978 -11.03545 0.14806315 30 3
4.4407949 -10.986283 0.5381819 31 3
4.4435282 -10.981447 0.91916764 45 3
4.4897971 -10.977266 4.0073624 48 3
4.4831257 -10.983278 3.6067693 40 3
4.4750915 -10.984046 3.2147121 31 3
4.4674025 -10.985864 2.825659 32 3
4.4587226 -10.984131 2.4380496 24 3
4.4476695 -10.97371 2.0566914 35 3
4.4425697 -10.984246 1.674897 39 3
4.4461322 -11.025176 1.2951263 32 3
2.7473822 -5.1378284 -0.057166215 22 3
2.9541285 -5.8723001 -0.07053493 27 3
3.1104205 -6.4240007 0.01008042 30 3
3.386574 -7.402832 0.050851457 24 3
3.9231126 -9.3089943 0.020667112 13 3
4.3989487 -10.993281 0.1545765 15 3
4.4000578 -10.982299 0.53986138 35 3
4.4028153 -10.977417 0.92032385 42 3
4.4493237 -10.973602 4.0043654 32 3
4.4425879 -10.979505 3.6042855 36 3
4.4345126 -10.980175 3.2127407 27 3
4.4267845 -10.981915 2.8242056 25 3
4.4180822 -10.980115 2.4371188 22 3
4.4070439 -10.969638 2.0562794 34 3
4.4018903 -10.980156 1.6750114 38 3
4.4093451 -11.035559 1.2957172 34 3
2.9262595 -5.8448858 -0.061658859 25 3
3.0805426 -6.3968573 0.017798038 32 3
3.3780699 -7.4665594 0.040648725 28 3
3.9581394 -9.5561771 -0.01439918 13 3
4.3555837 -10.979625 0.15785824 16 3
4.3580537 -10.973351 0.5419054 36 3
4.3621678 -10.973232 0.92148113 33 3
4.4089117 -10.969785 4.0013695 29 3
4.402112 -10.975576 3.6018035 36 3
4.3939972 -10.976149 3.2107706 32 3
4.3862305 -10.977808 2.8227532 21 3
4.3761716 -10.971152 2.4356828 25 3
4.3678198 -10.970216 2.0562019 34 3
4.3612752 -10.97591 1.6751271 38 3
4.3591957 -10.997621 1.2964743 17 3
2.7160079 -5.1515799 -0.058033455 27 3
3.0713763 -6.4450436 0.0086418157 31 3
3.367851 -7.5255632 0.03133665 20 3
3.8223188 -9.182951 0.04299216 11 3
4.3097329 -10.956203 0.16221561 26 3
4.3174629 -10.969049 0.54358679 38 3
4.3202662 -10.964071 0.9228285 30 3
4.3685617 -10.965812 3.9983745 25 3
4.3616996 -10.971492 3.5993223 35 3
4.3535457 -10.971968 3.2088015 35 3
4.3457408 -10.973547 2.8213019 19 3
4.3356781 -10.966821 2.4347541 20 3
4.3273072 -10.965838 2.0557926 33 3
4.3207259 -10.971508 1.6752439 38 3
4.315927 -10.983582 1.2971483 17 3
2.7008922 -5.160697 -0.059161227 26 3
2.8937011 -5.8739667 -0.065948077 22 3
3.0530393 -6.4601903 0.0068714563 31 3
3.3381119 -7.5132804 0.035264347 20 3
3.7906113 -9.1864777 0.044195697 10 3
4.2692504 -10.95179 0.16442166 33 3
4.2756405 -10.959777 0.54563212 39 3
4.2797666 -10.959569 0.92398775 24 3
4.3282747 -10.961685 3.9953806 25 3
4.3226423 -10.971974 3.5978661 35 3
4.3131585 -10.967631 3.2068334 37 3
4.3053164 -10.969132 2.8198519 18 3
4.2952499 -10.962335 2.4338262 20 3
4.2868609 -10.961305 2.0553842 33 3
4.2802424 -10.96695 1.6753618 36 3
4.2701936 -10.959711 1.2978539 20 3
2.660054 -5.0722418 -0.031048937 20 3
2.874824 -5.8790603 -0.065641224 24 3
3.0371127 -6.4847336 0.0029957378 29 3
3.3122587 -7.5151496 0.036546249 19 3
3.7462313 -9.1420469 0.052505646 12 3
4.2288337 -10.947223 0.16662866 36 3
4.2351985 -10.955159 0.54731548 35 3
4.2393336 -10.954913 0.92514801 19 3
4.2880511 -10.957405 3.9923878 34 3
4.2823415 -10.967587 3.5953875 33 3
4.2741165 -10.9679 3.2057204 38 3
4.264957 -10.964561 2.8184025 19 3
4.2561731 -10.962499 2.4334066 21 3
4.247767 -10.961436 2.055311 33 3
4.2411108 -10.967069 1.6756395 34 3
4.2310724 -10.959814 1.2984807 23 3
2.6475971 -5.0904675 -0.034962714 18 3
2.8498311 -5.8606277 -0.059214957 19 3
3.0161076 -6.4903188 0.0033384706 30 3
3.2615736 -7.4216771 0.055461243 22 3
4.1884832 -10.942499 0.16883685 34 3
4.1948242 -10.950388 0.54899973 30 3
4.2002363 -10.954935 0.92612129 17 3
4.2478905 -10.952971 3.9893961 36 3
4.2433639 -10.967776 3.5939343 26 3
4.2338428 -10.963261 3.2037547 40 3
4.2246642 -10.959839 2.8169546 19 3
4.2158613 -10.957709 2.4324813 21 3
4.207437 -10.956599 2.0549049 32 3
4.2007446 -10.962207 1.6757598 33 3
4.1919847 -10.959771 1.2991091 29 3
2.8213754 -5.8279972 -0.049120065 23 3
3.0060191 -6.5384398 -0.0057978369 26 3
3.244653 -7.4566369 0.050570801 22 3
3.7029233 -9.2251225 0.043557819 10 3
4.1482 -10.937622 0.17104609 25 3
4.1545172 -10.945461 0.55068517 26 3
4.1599207 -10.949974 0.92728394 17 3
4.2090321 -10.95308 3.9876013 40 3
4.203176 -10.963086 3.5914578 24 3
4.1948829 -10.963234 3.2026443 40 3
4.1856885 -10.959754 2.8161893 20 3
4.1768689 -10.95758 2.4320645 21 3
4.1684275 -10.956437 2.0548346 33 3
4.1604462 -10.957191 1.6758809 31 3
4.1529312 -10.959583 1.2997391 32 3
2.6199982 -5.1175132 -0.039999191 27 3
2.7706158 -5.7059216 -0.015790083 22 3
2.9764364 -6.5107465 0.0019223435 26 3
3.2142141 -7.4390821 0.055377074 17 3
3.7173991 -9.4105139 0.017804436 11 3
4.107985 -10.932592 0.17325626 16 3
4.1155086 -10.945213 0.55200976 16 3
4.1209087 -10.949702 0.92826003 23 3
4.1689854 -10.948347 3.984612 43 3
4.1630545 -10.958245 3.5889826 22 3
4.1559567 -10.963064 3.2015355 39 3
4.1455131 -10.954728 2.8147435 22 3
4.1366749 -10.952486 2.4311414 21 3
4.1282167 -10.951296 2.054431 32 3
4.1214504 -10.956865 1.676163 29 3
4.1139126 -10.959251 1.3003706 36 3
2.6068923 -5.1307702 -0.042527534 16 3
2.7520726 -5.705647 -0.014280883 22 3
2.9540308 -6.5063677 0.0043585128 25 3
3.1910977 -7.4449677 0.055758338 16 3
3.66131 -9.3124285 0.033899549 13 3
4.069663 -10.926949 0.17543733 12 3
4.077147 -10.939525 0.55366725 16 3
4.0837579 -10.948824 0.9292075 22 3
4.1320257 -10.947706 3.98279 38 3
4.1248183 -10.952792 3.5864782 24 3
4.1188869 -10.962292 3.2003982 38 3
4.1084442 -10.953893 2.813951 22 3
4.0995908 -10.951607 2.4306974 21 3
4.0911169 -10.950382 2.0543332 32 3
4.0830975 -10.95109 1.6762563 28 3
4.0755405 -10.953465 1.3009878 38 3
2.5906122 -5.1348658 -0.042258244 15 3
2.9259536 -6.483182 0.011022912 23 3
3.6126652 -9.2480888 0.045046713 12 3
4.030776 -10.926444 0.17711358 13 3
4.0382257 -10.938991 0.55499452 20 3
4.044816 -10.948268 0.93018663 28 3
4.0920935 -10.942679 3.9798031 31 3
4.0860233 -10.952398 3.5850306 28 3
4.0788302 -10.957061 3.1984375 35 3
4.068387 -10.948574 2.8125074 27 3
4.059516 -10.946219 2.4297764 22 3
4.0510263 -10.944948 2.0539317 32 3
4.0441895 -10.950476 1.676541 25 3
4.0366096 -10.952846 1.301622 39 3
2.5945759 -5.2229462 -0.067020416 16 3
2.7234523 -5.747766 -0.022230165 18 3
2.907254 -6.4978809 0.009266993 24 3
3.1330929 -7.4188418 0.063607983 22 3
3.5469801 -9.111371 0.066819765 5 3
3.9919255 -10.925797 0.17879118 17 3
3.9993405 -10.938313 0.55632335 26 3
4.0047259 -10.942715 0.93135399 33 3
4.0534 -10.942213 3.978014 29 3
4.0460854 -10.947112 3.5825584 31 3
4.0400233 -10.95646 3.1973329 32 3
4.0295835 -10.947911 2.8117476 29 3
4.0206966 -10.94551 2.4293652 23 3
4.0121913 -10.944206 2.0538669 31 3
4.0041332 -10.944863 1.6766665 23 3
3.9977152 -10.952083 1.3022578 40 3
2.567991 -5.1849432 -0.05422999 14 3
2.7016542 -5.7381129 -0.018257188 15 3
2.8862042 -6.5030122 0.0096177459 19 3
3.098547 -7.3816648 0.071932048 16 3
3.4604087 -8.8828363 0.10204007 8 3
3.9531112 -10.925006 0.18047036 27 3
3.9604921 -10.93749 0.55765373 32 3
3.9658747 -10.941867 0.93233579 36 3
4.0147409 -10.941604 3.9762261 28 3
4.0073767 -10.946428 3.5811133 34 3
4.0000877 -10.950932 3.1953743 29 3
3.9908156 -10.947104 2.8109894 33 3
3.981914 -10.944657 2.4289556 23 3
3.972224 -10.938471 2.0534673 32 3
3.9653149 -10.943958 1.676954 21 3
3.9576929 -10.946313 1.3029087 40 3
2.5504284 -5.1842265 -0.052564494 15 3
2.6898861 -5.7708583 -0.025279704 17 3
2.8662529 -6.5128298 0.0089182658 16 3
3.1183267 -7.5743227 0.038028196 17 3
3.4945533 -9.1596785 0.062870085 10 3
3.9143336 -10.924071 0.18215109 33 3
3.9205334 -10.931671 0.5593459 36 3
3.9270597 -10.940875 0.93331915 36 3
3.9749777 -10.936132 3.9732425 24 3
3.9687028 -10.945601 3.57967 35 3
3.9602211 -10.945251 3.1934166 25 3
3.9520848 -10.946155 2.8102326 34 3
3.9420166 -10.938825 2.4280381 24 3
3.9334793 -10.937439 2.0534053 30 3
3.925384 -10.938047 1.6770817 19 3
3.9188893 -10.945257 1.303547 38 3
2.5361135 -5.1974869 -0.055068005 14 3
2.6550438 -5.7043672 -0.0066478937 15 3
3.349128 -8.670187 0.13629858 7 3
3.8744695 -10.918149 0.18436812 33 3
3.8817761 -10.930557 0.56067896 37 3
3.888283 -10.93974 0.93430394 36 3
3.9364061 -10.935235 3.9714577 31 3
3.9300659 -10.944631 3.5782278 36 3
3.9215558 -10.944213 3.1923161 22 3
3.9133911 -10.945064 2.8094776 35 3
3.9033248 -10.937681 2.4276309 25 3
3.894773 -10.936262 2.0533445 30 3
3.8866582 -10.936851 1.6773717 19 3
3.8789937 -10.939188 1.3041999 35 3
2.5090013 -5.15449 -0.040894113 15 3
2.6367636 -5.7086248 -0.0063401735 16 3
2.8132036 -6.4750648 0.020139862 20 3
3.0555863 -7.5283632 0.049411811 12 3
3.4096408 -9.067728 0.079459339 38 3
3.8357837 -10.916924 0.1860514 26 3
3.8419452 -10.924439 0.56237328 35 3
3.849544 -10.938461 0.93529022 34 3
3.8978701 -10.934195 3.9696741 35 3
3.8914657 -10.94352 3.5767872 36 3
3.881813 -10.938235 3.1903608 21 3
3.8747349 -10.943829 2.8087237 37 3
3.8646715 -10.936397 2.4272254 24 3
3.8549862 -10.930082 2.0529485 30 3
3.8479702 -10.935513 1.6776633 18 3
3.8402841 -10.937842 1.304841 33 3
2.4874215 -5.1348014 -0.033671066 14 3
2.607914 -5.6654944 0.0061775809 16 3
2.7943666 -6.489409 0.018392181 23 3
3.0503023 -7.620461 0.034009326 13 3
3.4175489 -9.2436285 0.05520831 31 3
3.7960467 -10.910706 0.18827046 16 3
3.8032818 -10.923036 0.5637089 32 3
3.8097446 -10.932166 0.93646324 32 3
3.8582814 -10.928282 3.9666939 48 3
3.8529024 -10.942265 3.5753481 36 3
3.8432398 -10.93691 3.1892629 20 3
3.8361163 -10.942451 2.8079712 37 3
3.8249547 -10.93012 2.4263113 27 3
3.8163738 -10.928617 2.0528903 30 3
3.8082223 -10.929155 1.6777943 19 3
3.8005164 -10.931475 1.305496 29 3
2.4659934 -5.1150193 -0.026449772 13 3
2.5949647 -5.6932678 0.00038212386 15 3
2.7597051 -6.4320793 0.03240677 16 3
3.0179243 -7.5924339 0.040582445 14 3
3.3858507 -9.2456875 0.056434751 18 3
3.7563827 -10.904336 0.19049038 12 3
3.7635791 -10.916621 0.56540519 25 3
3.771101 -10.930598 0.93745208 28 3
3.8198352 -10.926954 3.9649129 60 3
3.8143768 -10.940868 3.5739105 34 3
3.8047049 -10.935442 3.1881661 22 3
3.7975366 -10.94093 2.8072205 38 3
3.7863953 -10.928545 2.4259081 27 3
3.7778008 -10.927011 2.0528338 29 3
3.7696304 -10.927527 1.6780884 18 3
3.7608228 -10.924958 1.3061517 25 3
2.4447169 -5.0951433 -0.019229991 11 3
2.5838799 -5.730494 -0.0078496793 12 3
2.9784691 -7.5305929 0.053301126 15 3
3.3646598 -9.2960033 0.050594915 16 3
3.7157362 -10.89296 0.1932447 10 3
3.7250116 -10.914927 0.56674337 16 3
3.7314317 -10.924006 0.93862706 21 3
3.7814274 -10.925486 3.9631338 88 3
3.7758894 -10.939331 3.5724742 33 3
3.7662089 -10.933832 3.1870711 22 3
3.758997 -10.93927 2.8064709 39 3
3.7468081 -10.921971 2.4249959 27 3
3.7392671 -10.925261 2.0527785 28 3
3.7310781 -10.925757 1.6783839 21 3
3.7222655 -10.923178 1.3067966 18 3
2.4235926 -5.0751748 -0.012012126 11 3
2.5745597 -5.777194 -0.018516468 12 3
2.7129729 -6.4173288 0.038366783 15 3
2.9691937 -7.6081796 0.040552337 16 3
3.351404 -9.385006 0.039110065 13 3
3.6772759 -10.89115 0.19493265 12 3
3.6854401 -10.908217 0.56844163 14 3
3.6928854 -10.922151 0.93961841 16 3
3.743058 -10.923876 3.9613559 79 3
3.7374408 -10.937652 3.5710394 30 3
3.7277517 -10.932082 3.1859777 27 3
3.7204962 -10.937467 2.8057227 40 3
3.7083452 -10.92011 2.4245954 27 3
3.7007742 -10.923369 2.0527246 27 3
3.6925666 -10.923846 1.6786809 21 3
3.682703 -10.916365 1.3074542 17 3
2.4045761 -5.0645199 -0.0075720688 9 3
2.557014 -5.7859182 -0.019418865 14 3
2.7031982 -6.4744196 0.027174739 15 3
2.9382212 -7.58461 0.046245299 17 3
3.3355174 -9.4643364 0.029049683 8 3
3.6398787 -10.894062 0.19608888 15 3
3.6469707 -10.906238 0.56978232 15 3
3.6533487 -10.915263 0.9407953 16 3
3.7037029 -10.91738 3.95838 66 3
3.6980033 -10.931047 3.5685778 27 3
3.6893351 -10.93019 3.1848853 28 3
3.6820352 -10.935522 2.804976 42 3
3.6699235 -10.918108 2.4241962 27 3
3.661288 -10.916456 2.0523341 27 3
3.6540956 -10.921792 1.6789792 22 3
3.6442449 -10.914297 1.3081014 15 3
2.3846855 -5.0490818 -0.0017448736 12 3
2.5258081 -5.7280774 -0.0032471071 13 3
2.6783028 -6.4596829 0.031732835 13 3
2.9371741 -7.7055583 0.025614722 15 3
3.3230944 -9.563055 0.016176529 14 3
3.602489 -10.896842 0.19724704 23 3
3.6085434 -10.904117 0.57112443 16 3
3.6149013 -10.913119 0.94178915 15 3
3.6654272 -10.915485 3.9566045 38 3
3.6596503 -10.929083 3.5671456 24 3
3.6509581 -10.928156 3.1837943 31 3
3.6436157 -10.933436 2.8042307 42 3
3.6315424 -10.915964 2.4237988 28 3
3.6228938 -10.914278 2.0522826 25 3
3.6156669 -10.919598 1.6792789 25 3
3.6058283 -10.912087 1.30875 14 3
2.3649156 -5.0335608 0.0040812786 10 3
2.5064905 -5.7271295 -0.0017115069 14 3
2.6303494 -6.3298278 0.061471015 16 3
2.9011912 -7.6577101 0.035698455 14 3
3.3129513 -9.6763544 0.0011996418 16 3
3.5641186 -10.894615 0.19893962 29 3
3.571151 -10.906741 0.57211 20 3
3.5764966 -10.910835 0.94278437 16 3
3.6271925 -10.913452 3.9548304 32 3
3.6213379 -10.926977 3.5657146 22 3
3.6126215 -10.925982 3.1827049 32 3
3.6052372 -10.93121 2.8034868 43 3
3.5932035 -10.91368 2.4234023 26 3
3.584542 -10.91196 2.0522325 23 3
3.5772793 -10.917261 1.6795799 27 3
3.5674534 -10.909737 1.3094 15 3
2.3452659 -5.0179563 0.0099062677 9 3
2.4843755 -5.7118387 0.0034813716 11 3
2.6203287 -6.3867445 0.050286748 14 3
2.8856716 -7.7110963 0.027364368 14 3
3.2672961 -9.6149111 0.011630841 17 3
3.5267611 -10.897122 0.20010139 32 3
3.5327902 -10.904341 0.5734551 28 3
3.5381339 -10.90841 0.9437809 19 3
3.5889966 -10.911277 3.9530578 31 3
3.582088 -10.919938 3.563256 25 3
3.5743277 -10.923668 3.1816168 34 3
3.5669005 -10.928843 2.8027442 45 3
3.5549059 -10.911254 2.4230072 24 3
3.5462322 -10.9095 2.0521839 24 3
3.5389352 -10.914785 1.6798822 30 3
3.5291216 -10.907246 1.3100512 17 3
2.3248258 -4.9975533 0.017117048 9 3
2.4623814 -5.6964574 0.0086733149 12 3
2.6192448 -6.4916544 0.028624278 14 3
2.8509824 -7.6678252 0.03656837 12 3
3.245796 -9.6747236 0.0044292873 15 3
3.4875038 -10.889738 0.20232889 27 3
3.494472 -10.9018 0.57480145 32 3
3.5007775 -10.910746 0.94459581 26 3
3.550842 -10.908962 3.9512863 28 3
3.5438738 -10.917549 3.5618274 24 3
3.537039 -10.926044 3.1813886 35 3
3.5286059 -10.926333 2.8020029 48 3
3.5166519 -10.908689 2.4226136 24 3
3.5079656 -10.9069 2.0521364 22 3
3.5015974 -10.917071 1.6803502 33 3
3.4908328 -10.904613 1.3107039 19 3
2.3089104 -4.9957886 0.018765107 8 3
2.4423265 -5.6806312 0.01383238 11 3
2.6122429 -6.5577974 0.015324969 15 3
2.8283658 -7.6722631 0.036962077 12 3
3.2187386 -9.6901159 0.0035232911 21 3
3.4519567 -10.881501 0.20449375 18 3
3.4598341 -10.898414 0.57608569 33 3
3.4661219 -10.907338 0.94553179 31 3
3.5163505 -10.905808 3.9494529 28 3
3.5093277 -10.914319 3.5603371 27 3
3.5024424 -10.92275 3.1802402 37 3
3.4939876 -10.922984 2.8011994 45 3
3.4820693 -10.905284 2.4221578 26 3
3.4733729 -10.903462 2.052027 22 3
3.4669583 -10.913617 1.6805919 35 3
3.457166 -10.906053 1.3112844 24 3
2.2956567 -5.0081344 0.016254181 7 3
2.4125526 -5.6221757 0.029984433 10 3
2.5702827 -6.4513764 0.039801519 13 3
2.8050368 -7.6867867 0.035649177 15 3
3.1938729 -9.7352333 -0.0015505013 11 3
3.412852 -10.873837 0.20672236 13 3
3.4216027 -10.895605 0.57743448 32 3
3.4278722 -10.904508 0.94653237 34 3
3.4782782 -10.903229 3.9476843 27 3
3.4711976 -10.911665 3.5589111 32 3
3.4642572 -10.920033 3.1791561 36 3
3.4557781 -10.920211 2.8004608 51 3
3.4439011 -10.902452 2.4217665 26 3
3.4351926 -10.900596 2.0519819 23 3
3.428726 -10.910735 1.6808983 36 3
3.418947 -10.903157 1.3119397 29 3
2.2781541 -5.0065632 0.017931832 6 3
2.3971555 -5.6448345 0.025444444 10 3
2.5315871 -6.364161 0.060092889 11 3
3.153621 -9.707572 0.0039739767 10 3
3.3729165 -10.871254 0.20845264 10 3
3.3806894 -10.888092 0.57917285 27 3
3.3878486 -10.901877 0.94756615 34 3
3.4384389 -10.900847 3.9459486 27 3
3.4312985 -10.909208 3.5575182 35 3
3.4243004 -10.917513 3.1781054 39 3
3.4157968 -10.917633 2.7997551 48 3
3.4048786 -10.904706 2.4219217 26 3
3.395242 -10.897926 2.0519702 23 3
3.3887224 -10.908051 1.6812378 38 3
3.3798656 -10.905375 1.312619 33 3
2.2623124 -5.0095081 0.018210161 7 3
2.3850813 -5.6816039 0.017239824 11 3
2.5187998 -6.4112849 0.051027589 12 3
3.1583641 -9.9181356 -0.025022089 13 3
3.3339531 -10.863294 0.21068314 10 3
3.3416734 -10.880089 0.58087993 23 3
3.3496883 -10.89876 0.94856936 33 3
3.4004519 -10.897984 3.9441824 28 3
3.3941503 -10.911078 3.5571253 36 3
3.3862033 -10.914511 3.1770239 40 3
3.377676 -10.914573 2.7990189 43 3
3.3667831 -10.901591 2.4215333 25 3
3.3571515 -10.894773 2.0519278 25 3
3.3505805 -10.904884 1.6815469 38 3
3.3417194 -10.902196 1.3132771 36 3
2.241483 -4.9840059 0.026803225 6 3
2.3727612 -5.7183523 0.0090408036 9 3
2.5082419 -6.4728374 0.038827363 13 3
2.7032878 -7.5604644 0.062377095 13 3
3.1521533 -10.075228 -0.046251211 12 3
3.296809 -10.864978 0.21185336 13 3
3.3027363 -10.871938 0.58258778 17 3
3.3106952 -10.890585 0.94975525 31 3
3.3625088 -10.89498 3.9424174 34 3
3.3561337 -10.908002 3.5557036 37 3
3.3481498 -10.911368 3.1759439 40 3
3.3395996 -10.911373 2.7982841 40 3
3.3287315 -10.898338 2.4211464 28 3
3.3191066 -10.891483 2.0518868 25 3
3.3124843 -10.901578 1.6818571 37 3
3.3036196 -10.898878 1.3139366 37 3
2.2322249 -5.0247016 0.015999291 5 3
2.3511431 -5.7025061 0.014232205 8 3
2.492275 -6.5054822 0.032916892 12 3
2.6810536 -7.5794258 0.060190827 9 3
3.171114 -10.383591 -0.089261144 12 3
3.2588239 -10.861631 0.21355563 17 3
3.2647374 -10.868556 0.5839408 13 3
3.2726433 -10.887186 0.95076072 29 3
3.32375 -10.887064 3.9394517 36 3
3.3181617 -10.904789 3.5542831 38 3
3.3101416 -10.908088 3.1748645 40 3
3.301569 -10.908035 2.7975504 40 3
3.2907262 -10.894947 2.4207604 27 3
3.2811077 -10.888054 2.0518467 25 3
3.2744343 -10.898132 1.6821686 38 3
3.2647083 -10.890496 1.3146056 38 3
2.2195058 -5.0464382 0.010741334 6 3
2.319973 -5.6291857 0.034021009 8 3
2.4622371 -6.4561348 0.044802938 12 3
2.6842127 -7.7487836 0.030900219 9 3
3.1555803 -10.501875 -0.1048153 15 3
3.2217197 -10.863048 0.21472929 26 3
3.2267849 -10.865036 0.58529496 20 3
3.2346387 -10.883651 0.95176727 29 3
3.2859113 -10.883782 3.9376888 38 3
3.2802346 -10.901438 3.5528638 38 3
3.2721784 -10.904668 3.1737871 39 3
3.2635844 -10.904559 2.796818 42 3
3.2527671 -10.891416 2.4203758 26 3
3.2431548 -10.884485 2.0518081 26 3
3.2364316 -10.894548 1.6824813 39 3
3.2267182 -10.886897 1.3152672 39 3
2.2074237 -5.0728822 0.0041019064 9 3
2.2885382 -5.5509243 0.055017728 7 3
2.434154 -6.4162974 0.054591302 9 3
2.6660535 -7.7968369 0.023485389 9 3
3.1075492 -10.429726 -0.092948787 13 3
3.184629 -10.864331 0.21590477 36 3
3.1897023 -10.866296 0.58629566 42 3
3.1975076 -10.884902 0.95259458 47 3
3.2481174 -10.880363 3.9359274 52 3
3.2423527 -10.897947 3.551446 38 3
3.234261 -10.901113 3.1727109 40 3
3.2248144 -10.896062 2.7953978 42 3
3.2148547 -10.887748 2.4199924 28 3
3.2052488 -10.880778 2.0517707 38 3
3.1984751 -10.890826 1.6827953 40 3
3.1887755 -10.883161 1.31593 50 3
2.1974556 -5.1135292 -0.0066867196 8 3
2.2670453 -5.5250249 0.062614486 7 3
2.4050469 -6.3616867 0.06749519 10 3
3.0307112 -10.166524 -0.053727511 14 3
3.1493642 -10.865183 0.21704967 35 3
3.1552525 -10.872046 0.58691114 39 3
3.1613941 -10.880792 0.95357144 42 3
3.2121739 -10.87651 3.9341347 91 3
3.2063262 -10.894022 3.5499966 43 3
3.1982019 -10.89712 3.171603 57 3
3.1895654 -10.896894 2.7953241 58 3
3.1787996 -10.883644 2.4195778 67 3
3.1700141 -10.881559 2.0520444 65 3
3.1623797 -10.886668 1.6830778 58 3
3.1526935 -10.878988 1.3165616 53 3
2.1798089 -5.1018233 -0.0022583799 7 3
2.2584777 -5.585412 0.048342451 7 3
2.3768265 -6.3167706 0.078320265 12 3
2.6099763 -7.7662053 0.031366244 10 3
3.0108824 -10.260066 -0.065758303 16 3
3.1122994 -10.866208 0.21822867 33 3
3.1189692 -10.877975 0.58756143 25 3
3.1243072 -10.881783 0.95440191 28 3
3.1752646 -10.877612 3.9335792 74 3
3.1693316 -10.89509 3.5496132 76 3
3.160377 -10.893293 3.1705289 75 3
3.1517205 -10.89301 2.7945952 74 3
3.1417792 -10.884616 2.4197121 70 3
3.1329818 -10.882511 2.052352 40 3
3.1253123 -10.88761 1.6835613 51 3
3.1156361 -10.879919 1.3172195 39 3
2.1621728 -5.0949283 0.0007999544 7 3
2.2489195 -5.6360717 0.036493532 7 3
2.3671753 -6.3826985 0.065078713 9 3
2.581238 -7.7409 0.037040636 9 3
3.022665 -10.548968 -0.10587827 20 3
3.0778313 -10.871726 0.21884818 27 3
3.083708 -10.878564 0.58853531 26 3
3.0890484 -10.882355 0.95520151 16 3
3.1401737 -10.878296 3.9329925 70 3
3.1333807 -10.890912 3.5481665 73 3
3.1251905 -10.893908 3.1702855 57 3
3.1165156 -10.893595 2.7945249 48 3
3.1065826 -10.885171 2.4198158 50 3
3.0977752 -10.883047 2.0526285 29 3
3.0900719 -10.888136 1.684014 38 3
3.080406 -10.880434 1.3178465 33 3
2.1446857 -5.0830898 0.0052269814 7 3
2.2373981 -5.6820712 0.025882911 7 3
2.3567848 -6.4536242 0.050819557 11 3
2.5780411 -7.8909049 0.011309653 9 3
2.9919474 -10.583851 -0.10945271 18 3
3.0407779 -10.872498 0.22003092 21 3
3.0474021 -10.884242 0.58918995 31 3
3.0527492 -10.888026 0.95585614 16 3
3.1040518 -10.883934 3.9336441 78 3
3.0964305 -10.891723 3.5477862 39 3
3.0889728 -10.899548 3.170939 36 3
3.0795133 -10.894338 2.7944887 37 3
3.070354 -10.8908 2.4204695 30 3
3.0615339 -10.88867 2.0532827 30 3
3.0530334 -10.88882 1.6845009 35 3
3.0433774 -10.881108 1.318508 30 3
2.1277714 -5.0856919 0.0055326526 7 3
2.2274725 -5.7473879 0.010436492 6 3
2.3334212 -6.4473166 0.053305555 10 3
2.5262997 -7.7294927 0.041470721 8 3
2.9111898 -10.295723 -0.066713229 11 3
3.0019245 -10.87341 0.22124824 17 3
3.0092604 -10.890069 0.58987987 34 3
3.0138733 -10.888904 0.95672506 18 3
3.0653596 -10.884922 3.9331264 41 3
3.0584309 -10.897507 3.5484741 35 3
3.0501766 -10.900465 3.1707649 38 3
3.041461 -10.900117 2.7951775 39 3
3.0322933 -10.896573 2.4211586 25 3
3.0227158 -10.889506 2.0536289 31 3
3.0141959 -10.889644 1.6850226 34 3
3.0045514 -10.881921 1.3192041 25 3
2.1130154 -5.0976248 0.0030589649 6 3
2.2069771 -5.7357488 0.014413892 7 3
2.2979062 -6.3488092 0.075617462 8 3
2.4868634 -7.6358328 0.059376717 8 3
2.9081593 -10.51642 -0.096927769 11 3
2.964185 -10.86899 0.2229623 14 3
2.9721949 -10.890553 0.59089237 35 3
2.9775524 -10.894313 0.95738423 22 3
3.0292149 -10.890299 3.9337826 48 3
3.0214925 -10.898049 3.5480978 38 3
3.0139358 -10.905843 3.171423 40 3
3.0044715 -10.900594 2.795145 40 3
2.995297 -10.897022 2.4213006 23 3
2.9864526 -10.894869 2.0542877 34 3
2.9771879 -10.890058 1.6855131 28 3
2.9682744 -10.887272 1.3198632 22 3
2.0981841 -5.1095123 0.00058753311 6 3
2.1906095 -5.7528515 0.011105921 6 3
2.2869117 -6.4196014 0.061372764 11 3
2.4707866 -7.7028632 0.048495792 8 3
2.8786299 -10.560753 -0.10189375 17 3
2.9271946 -10.869355 0.22415011 11 3
2.9351447 -10.890906 0.59190655 34 3
2.9412124 -10.899595 0.95804578 24 3
2.9923413 -10.890748 3.9332361 47 3
2.9852812 -10.9033 3.5487571 37 3
2.9769642 -10.906221 3.1712198 43 3
2.9682105 -10.905839 2.7958055 50 3
2.9590278 -10.902263 2.4219613 22 3
2.950171 -10.900105 2.0549486 36 3
2.9409027 -10.895287 1.6861744 24 3
2.9312756 -10.887546 1.3205303 19 3
2.0832782 -5.1213522 -0.0018816296 6 3
2.4529121 -7.7601151 0.039367948 8 3
2.8481328 -10.600099 -0.10615233 22 3
2.8895383 -10.864664 0.22586671 11 3
2.8987966 -10.896067 0.59257019 34 3
2.9048545 -10.904751 0.95870966 30 3
2.9554834 -10.891068 3.9326916 52 3
2.9483573 -10.903583 3.5483847 38 3
2.9407043 -10.911345 3.1718822 44 3
2.9312353 -10.906054 2.7957771 48 3
2.9220462 -10.902452 2.4221072 24 3
2.9131789 -10.900272 2.0552678 36 3
2.9039097 -10.895441 1.6866689 21 3
2.8942935 -10.887688 1.3211991 16 3
2.0682974 -5.1331453 -0.0043486389 5 3
2.15307 -5.7532496 0.012993772 6 3
2.257647 -6.5175481 0.04230522 8 3
2.4509857 -7.9393287 0.008464017 8 3
2.8101244 -10.585381 -0.10270508 16 3
2.8532629 -10.869692 0.22653092 9 3
2.8617628 -10.896157 0.59358811 31 3
2.8678069 -10.904828 0.95955366 33 3
2.9186413 -10.891255 3.9321487 47 3
2.9121273 -10.908578 3.5490484 37 3
2.9037478 -10.911463 3.1716831 50 3
2.8949559 -10.911043 2.796442 50 3
2.8857584 -10.907435 2.4227722 24 3
2.876879 -10.905252 2.0559332 36 3
2.8676069 -10.900414 1.6873345 18 3
2.8579969 -10.892653 1.3218647 16 3
2.0520141 -5.1353583 -0.0040498036 5 3
2.1383564 -5.7846169 0.0060529229 6 3
2.2327564 -6.4913154 0.048951965 9 3
2.4369998 -8.0356226 -0.0076075215 10 3
2.7767327 -10.604884 -0.10415532 16 3
2.8169696 -10.874593 0.2271975 12 3
2.8240938 -10.891172 0.59495956 25 3
2.8314312 -10.909727 0.96022195 35 3
2.881815 -10.891313 3.9316075 100 3
2.8752189 -10.908601 3.5486798 38 3
2.8674698 -10.916329 3.1723497 53 3
2.8579977 -10.910999 2.7964172 48 3
2.8487935 -10.907364 2.4229219 25 3
2.8399038 -10.905161 2.0562561 37 3
2.8306313 -10.900307 1.6878326 18 3
2.821032 -10.892536 1.3225372 17 3
2.0333343 -5.1184425 0.001775862 5 3
2.1222215 -5.8063211 0.0015430037 6 3
2.2129612 -6.5037932 0.047253381 8 3
2.3920076 -7.89257 0.01900154 8 3
2.7444713 -10.634099 -0.1069999 20 3
2.7806597 -10.879367 0.22786638 15 3
2.787112 -10.890999 0.59598053 18 3
2.7944012 -10.909546 0.96106964 36 3
2.8450062 -10.891239 3.9310679 97 3
2.8389716 -10.913341 3.5493479 39 3
2.8305309 -10.916187 3.1721544 50 3
2.8217013 -10.915733 2.7970865 46 3
2.8124895 -10.912092 2.4235914 27 3
2.8035874 -10.909884 2.0569258 37 3
2.7943118 -10.905025 1.6885026 22 3
2.7847197 -10.897246 1.3232071 19 3
2.0211666 -5.1539254 -0.0075923884 5 3
2.1030006 -5.8039031 0.0030996497 5 3
2.197258 -6.5501828 0.038259074 8 3
2.3528469 -7.7883873 0.03862993 8 3
2.7449465 -10.888949 0.22801179 22 3
2.7501481 -10.890693 0.59700328 14 3
2.7580094 -10.914188 0.96174222 37 3
2.8088408 -10.895847 3.9317365 97 3
2.8020809 -10.913103 3.5489829 39 3
2.7942369 -10.920798 3.1728256 49 3
2.784761 -10.915428 2.7970653 45 3
2.7755435 -10.91176 2.4237444 30 3
2.7666306 -10.909533 2.0572524 37 3
2.7573547 -10.904657 1.6890043 23 3
2.7483909 -10.90183 1.3238795 27 3
2.0048108 -5.1559744 -0.0072894897 4 3
2.0820904 -5.7869649 0.0082937758 11 3
2.3196929 -7.7280197 0.050414808 10 3
2.6616645 -10.544756 -0.091713585 13 3
2.7085869 -10.893473 0.22868563 28 3
2.7138031 -10.895208 0.59767693 13 3
2.7209988 -10.913743 0.96259367 37 3
2.7720497 -10.895515 3.931201 98 3
2.7652075 -10.912735 3.5486197 40 3
2.7573164 -10.920397 3.1726334 49 3
2.7478395 -10.914992 2.7970459 40 3
2.7392244 -10.916234 2.4244182 32 3
2.7302992 -10.914001 2.0579264 37 3
2.7210202 -10.90912 1.6896785 25 3
2.7120466 -10.906286 1.324554 34 3
1.9950134 -5.2152591 -0.023551546 12 3
2.061862 -5.7747645 0.012274497 12 3
2.1503024 -6.5165491 0.047382455 10 3
2.2943563 -7.7310905 0.050885625 9 3
2.6259162 -10.544097 -0.09036161 13 3
2.6722119 -10.897868 0.22936177 30 3
2.6768596 -10.894642 0.59870338 12 3
2.6840072 -10.913168 0.96344674 36 3
2.7358699 -10.899869 3.9318738 100 3
2.7283525 -10.912236 3.5482581 38 3
2.7210083 -10.924752 3.1733088 49 3
2.7109368 -10.914426 2.7970281 38 3
2.7022986 -10.915643 2.4245753 34 3
2.6933637 -10.913388 2.0582566 35 3
2.6846702 -10.913453 1.6903552 29 3
2.6762691 -10.915582 1.3252276 36 3
1.9851145 -5.2696605 -0.038440712 10 3
2.0435748 -5.7622719 0.016220165 8 3
2.130759 -6.5139313 0.048778195 9 3
2.2654662 -7.6799593 0.060875405 8 3
2.6394615 -10.901716 0.22997227 31 3
2.6441371 -10.89848 0.59931344 14 3
2.6506748 -10.912042 0.96423346 35 3
2.7027171 -10.898861 3.9312739 98 3
2.6957207 -10.916047 3.5488667 38 3
2.6877398 -10.923674 3.1730528 43 3
2.6776831 -10.913314 2.7969441 35 3
2.6690238 -10.914504 2.4246659 36 3
2.6606541 -10.917184 2.058867 35 3
2.6519432 -10.917248 1.690966 34 3
2.6435175 -10.919373 1.325839 39 3
1.9712529 -5.2906027 -0.043662954 10 3
2.0235295 -5.7499256 0.020199424 10 3
2.1022491 -6.448288 0.063751221 9 3
2.24244 -7.7024193 0.05786901 7 3
2.5677283 -10.630587 -0.10027723 16 3
2.6025126 -10.900928 0.23117734 30 3
2.6077657 -10.902625 0.59999347 17 3
2.614275 -10.916183 0.96491414 29 3
2.6665258 -10.902972 3.9319508 96 3
2.6588867 -10.915302 3.5485084 36 3
2.6508589 -10.922894 3.1728661 39 3
2.6408191 -10.912498 2.7969296 31 3
2.6326962 -10.918605 2.4253457 36 3
2.6237402 -10.916326 2.0592005 34 3
2.6150124 -10.916374 1.6914752 38 3
2.6071122 -10.923462 1.3265206 51 3
1.9560648 -5.3164721 -0.050229646 9 3
2.0026591 -5.7376037 0.024195198 11 3
2.0864742 -6.5090842 0.051669694 8 3
2.2055819 -7.6074243 0.075743094 7 3
2.5351837 -10.679021 -0.10585518 19 3
2.564292 -10.905152 0.231894 25 3
2.5695596 -10.90684 0.60070992 18 3
2.5755062 -10.915425 0.96580642 24 3
2.6285105 -10.907153 3.9326639 97 3
2.6208038 -10.919484 3.5492229 36 3
2.6127269 -10.927074 3.1735816 38 3
2.6027031 -10.91667 2.7976449 26 3
2.593996 -10.917831 2.4255416 38 3
2.5855684 -10.920489 2.0599172 33 3
2.5768187 -10.920534 1.6921923 39 3
2.5683405 -10.922649 1.3272409 55 3
1.9415447 -5.3422055 -0.056807879 8 3
1.9828043 -5.7251029 0.028172979 9 3
2.0658867 -6.5162144 0.051025327 7 3
2.1846709 -7.6492844 0.06926319 9 3
2.4970121 -10.65821 -0.10169968 17 3
2.5273674 -10.904098 0.23310269 20 3
2.5331593 -10.910725 0.60139465 22 3
2.5385785 -10.914334 0.96666628 22 3
2.5917637 -10.906182 3.9321373 54 3
2.5845203 -10.923336 3.5499058 35 3
2.5758693 -10.926029 3.1733983 34 3
2.5658629 -10.915588 2.7976339 23 3
2.557657 -10.921671 2.4262259 39 3
2.5492005 -10.924326 2.0606019 30 3
2.5404305 -10.924366 1.6928775 47 3
2.5319247 -10.926476 1.3279269 55 3
1.9635154 -5.7173548 0.03093973 8 3
2.0562382 -6.6352201 0.026454456 8 3
2.1678245 -7.735188 0.054976083 8 3
2.4624176 -10.671746 -0.10242224 21 3
2.4904635 -10.902913 0.234313 16 3
2.4967458 -10.914482 0.6020816 29 3
2.502172 -10.918084 0.96735317 18 3
2.555548 -10.909906 3.9328206 38 3
2.5477135 -10.922198 3.5495532 36 3
2.5390337 -10.924854 3.1732168 31 3
2.5295527 -10.919303 2.7983193 22 3
2.5213046 -10.925383 2.4269123 40 3
2.512315 -10.923073 2.0609412 27 3
2.5035281 -10.923099 1.6933924 51 3
2.4949992 -10.925202 1.3286167 48 3
1.9075087 -5.3456926 -0.056165408 7 3
1.9488295 -5.7578373 0.021605453 8 3
2.0397787 -6.690938 0.015420953 7 3
2.1457262 -7.7720428 0.049380567 8 3
2.4277415 -10.685166 -0.10314142 19 3
2.4535816 -10.901597 0.23552495 13 3
2.460319 -10.918112 0.60277081 32 3
2.46527 -10.916734 0.96821654 18 3
2.5193195 -10.913504 3.9335063 38 3
2.511421 -10.925796 3.55024 32 3
2.5027113 -10.928448 3.1739044 29 3
2.4932294 -10.922892 2.7990072 22 3
2.4849403 -10.928968 2.4276009 38 3
2.4759386 -10.926653 2.06163 24 3
2.4671314 -10.926674 1.6940818 56 3
2.4585752 -10.928775 1.3293067 45 3
1.8917739 -5.3617091 -0.059977684 8 3
1.9325546 -5.7837868 0.015906673 9 3
2.0118546 -6.6248531 0.030388894 8 3
2.1238279 -7.8137355 0.042923495 9 3
2.3934383 -10.703398 -0.10455296 23 3
2.4167221 -10.900152 0.23673835 12 3
2.4238801 -10.921615 0.60346222 35 3
2.4288559 -10.920227 0.96890759 18 3
2.4830782 -10.916974 3.9341943 39 3
2.4746399 -10.924398 3.549891 30 3
2.4659011 -10.927013 3.1737266 27 3
2.4564195 -10.921423 2.7990017 20 3
2.448091 -10.927476 2.4277701 36 3
2.4395492 -10.930106 2.0623214 25 3
2.430722 -10.930123 1.6947734 45 3
2.4216769 -10.927241 1.33 40 3
1.8755187 -5.3728857 -0.062408697 5 3
1.9152638 -5.8000207 0.012631208 8 3
1.9933522 -6.6609631 0.023521729 7 3
2.1007831 -7.8455548 0.038207665 9 3
2.3581469 -10.711652 -0.1045689 19 3
2.3798854 -10.898577 0.23795342 11 3
2.387429 -10.92499 0.6041559 35 3
2.3924298 -10.923594 0.96960092 22 3
2.4463656 -10.915489 3.9336748 36 3
2.4383402 -10.927741 3.5505822 26 3
2.4295716 -10.930352 3.1744182 26 3
2.4200897 -10.924756 2.7996936 18 3
2.4117196 -10.930806 2.428463 36 3
2.4026966 -10.928465 2.0626659 27 3
2.3938527 -10.928467 1.6952937 42 3
2.3852458 -10.930556 1.3306943 36 3
1.8576028 -5.3648491 -0.059327003 5 3
1.8978654 -5.8161993 0.0093588224 8 3
1.9598732 -6.5215669 0.054067127 7 3
2.0845709 -7.9607182 0.018759957 9 3
2.3228097 -10.719784 -0.10458212 13 3
2.3430712 -10.89687 0.23917006 10 3
2.3509665 -10.928239 0.60485184 36 3
2.3559923 -10.926834 0.97029644 25 3
2.4101183 -10.918706 3.9343669 31 3
2.4015868 -10.926085 3.5502365 25 3
2.3927898 -10.92866 3.1742437 22 3
2.3837478 -10.927961 2.8003876 18 3
2.3753362 -10.934009 2.429158 36 3
2.366302 -10.931663 2.0633612 29 3
2.3574378 -10.93166 1.6959895 38 3
2.3483763 -10.928763 1.3313911 32 3
1.8389882 -5.3471637 -0.05349062 4 3
1.881519 -5.8468304 0.0024630644 8 3
1.9375722 -6.5087633 0.057587445 9 3
2.060806 -7.9924192 0.014060722 8 3
2.2870247 -10.722858 -0.10389735 17 3
2.3070936 -10.904946 0.23934452 10 3
2.3140829 -10.926388 0.60589719 35 3
2.3195431 -10.929946 0.97099423 32 3
2.3738599 -10.921796 3.935061 28 3
2.3652813 -10.929173 3.5509317 25 3
2.3564553 -10.931744 3.1749394 18 3
2.3473952 -10.93104 2.801084 24 3
2.3385227 -10.93213 2.4293327 34 3
2.3298967 -10.934733 2.0640588 31 3
2.3205988 -10.929746 1.6965131 35 3
2.3115313 -10.926841 1.3320894 28 3
1.8208665 -5.3342004 -0.049032737 3 3
1.8655372 -5.872499 -0.0032373164 7 3
1.9213061 -6.5591874 0.047587361 7 3
2.0370028 -8.0092096 0.011940592 8 3
2.25032 -10.691109 -0.09838149 14 3
2.2725019 -10.907793 0.24000841 12 3
2.2794399 -10.929235 0.60656214 32 3
2.2853036 -10.937767 0.97148663 36 3
2.3389945 -10.91978 3.9345121 25 3
2.3307822 -10.931989 3.5515943 25 3
2.3219273 -10.934555 3.1756027 18 3
2.3128505 -10.933847 2.8017476 29 3
2.3039548 -10.934933 2.429997 30 3
2.2949004 -10.93256 2.0643737 32 3
2.2860005 -10.932539 1.6971779 34 3
2.2769246 -10.929629 1.3327545 25 3
1.7998651 -5.2683687 -0.029448336 3 3
1.8487955 -5.9030337 -0.010123347 7 3
2.0074098 -7.9670968 0.020240404 9 3
2.2094789 -10.624801 -0.087972932 11 3
2.2364528 -10.915626 0.24018815 16 3
2.2425869 -10.927131 0.6076107 27 3
2.2488177 -10.940633 0.97218901 39 3
2.3027322 -10.922621 3.9352102 24 3
2.2944572 -10.934829 3.5522938 24 3
2.2855725 -10.937391 3.1763029 23 3
2.2764783 -10.936679 2.802448 33 3
2.2671719 -10.932802 2.4301748 26 3
2.2584918 -10.935381 2.0650752 35 3
2.2491927 -10.930373 1.6977048 31 3
2.2401102 -10.927454 1.3334562 22 3
1.789724 -5.3655548 -0.056653254 3 3
1.8338108 -5.947968 -0.020646464 8 3
1.883621 -6.6160808 0.03697018 6 3
1.9693419 -7.7823181 0.053613622 8 3
2.1715763 -10.568079 -0.078993529 8 3
2.2018266 -10.918239 0.24085639 21 3
2.207942 -10.92974 0.60827941 19 3
2.2137837 -10.938252 0.97303021 42 3
2.2682753 -10.925204 3.9358757 24 3
2.2599394 -10.93741 3.5529602 25 3
2.2510276 -10.939969 3.17697 28 3
2.241915 -10.93925 2.8031158 36 3
2.2326024 -10.935369 2.4308429 23 3
2.2238951 -10.937943 2.0657437 36 3
2.2145934 -10.932929 1.6983733 27 3
2.2055018 -10.930005 1.334125 22 3
1.7772599 -5.4242969 -0.072852187 3 3
1.8114817 -5.9009457 -0.0082014184 7 3
1.866398 -6.6810822 0.023898097 6 3
1.942827 -7.7694249 0.0567034 9 3
2.146029 -10.713895 -0.098431051 15 3
2.1653695 -10.920865 0.24156195 27 3
2.1714642 -10.932362 0.60898542 16 3
2.1772964 -10.940869 0.97373652 48 3
2.2319951 -10.927798 3.936578 25 3
2.2235954 -10.940002 3.553664 27 3
2.2146544 -10.942557 3.1776743 31 3
2.2055242 -10.941833 2.8038206 38 3
2.1962044 -10.937945 2.4315479 23 3
2.1871192 -10.935542 2.0660985 38 3
2.1778181 -10.930512 1.6989036 22 3
2.1690633 -10.932567 1.3348312 27 3
1.7534888 -5.3488483 -0.05047131 2 3
1.7906241 -5.9023862 -0.0077967942 7 3
1.8404005 -6.6485538 0.031620573 6 3
1.917292 -7.8106689 0.050327845 7 3
2.1255748 -10.928569 0.24182047 32 3
2.1310053 -10.93012 0.6101101 36 3
2.1368239 -10.938613 0.97468722 58 3
2.1917343 -10.925667 3.9361415 26 3
2.1832666 -10.93783 3.5533998 30 3
2.1746337 -10.945257 3.1784518 32 3
2.1651475 -10.93959 2.8039002 40 3
2.1558235 -10.935674 2.4318018 24 3
2.1470587 -10.938224 2.0668769 40 3
2.1377554 -10.933187 1.6996821 22 3
2.1289704 -10.935237 1.3356106 47 3
1.7350554 -5.3259706 -0.043262869 3 3
1.7682414 -5.8455 0.0070543033 7 3
1.8197012 -6.664608 0.028930031 7 3
1.8907866 -7.7975874 0.053420261 10 3
2.0658448 -10.634885 -0.085189067 12 3
2.0890813 -10.930929 0.24253094 36 3
2.0948327 -10.937453 0.61047524 42 3
2.1003354 -10.94096 0.97539783 57 3
2.1554534 -10.927995 3.9368479 26 3
2.1469221 -10.940155 3.5541077 32 3
2.138243 -10.94758 3.1791606 37 3
2.1287558 -10.941905 2.8046093 48 3
2.1194253 -10.937983 2.4325111 35 3
2.1103191 -10.935552 2.0672355 67 3
2.1013255 -10.935487 1.7003922 69 3
2.0925071 -10.937531 1.3363215 70 3
1.7518847 -5.8902655 -0.0034380667 5 3
1.7972597 -6.6512909 0.032461278 6 3
2.0376673 -10.765599 -0.1025074 12 3
2.0525804 -10.933163 0.24324355 35 3
2.0586169 -10.944659 0.61084324 38 3
2.0638394 -10.94318 0.97611052 48 3
2.119164 -10.930196 3.9375567 105 3
2.1105697 -10.942353 3.5548179 41 3
2.1018443 -10.949775 3.1798718 68 3
2.0923569 -10.944094 2.8053205 71 3
2.0830193 -10.940166 2.4332225 71 3
2.0739009 -10.937728 2.0679471 73 3
2.0648885 -10.937658 1.7011045 77 3
2.0566249 -10.94968 1.3370389 63 3
1.7334628 -5.9010615 -0.0054802047 6 3
1.7754271 -6.6476622 0.033919621 6 3
1.8396282 -7.8006458 0.054420143 8 3
2.002516 -10.782513 -0.10388105 17 3
2.0166066 -10.9452 0.24291991 25 3
2.02263 -10.956721 0.61086953 17 3
2.0278833 -10.955252 0.97648501 22 3
2.0831599 -10.937112 3.9394805 77 3
2.0742097 -10.944425 3.5555301 76 3
2.0654378 -10.951842 3.1805851 76 3
2.0559499 -10.946155 2.8060338 76 3
2.0466061 -10.942221 2.4339361 73 3
2.038033 -10.949738 2.0693655 42 3
2.0289929 -10.94968 1.7021732 63 3
2.0206599 -10.961708 1.33776 38 3
1.7168688 -5.911694 -0.0075569726 6 3
1.7557794 -6.6438417 0.035336211 6 3
1.8183104 -7.8363366 0.048826866 8 3
1.9688733 -10.759551 -0.09978462 14 3
1.9842154 -10.956922 0.24252784 22 3
1.9902273 -10.968467 0.61082751 14 3
1.9955096 -10.96701 0.97679108 16 3
2.0507491 -10.943714 3.9413354 77 3
2.0417552 -10.951063 3.5572152 73 3
2.0329387 -10.958511 3.1821008 56 3
2.0231781 -10.947902 2.8066778 60 3
2.0143602 -10.953893 2.435631 40 3
2.005739 -10.961436 2.0707157 29 3
1.9966738 -10.961394 1.7031735 37 3
1.988276 -10.973425 1.3384125 37 3
1.6983079 -5.9223723 -0.0095944088 5 3
1.7342286 -6.6449523 0.035760198 6 3
1.7978224 -7.95081 0.029477419 8 3
1.9334139 -10.771283 -0.10046119 13 3
1.9480934 -10.968724 0.24221098 23 3
1.9540919 -10.980293 0.61086053 16 3
1.9594049 -10.978847 0.97717232 15 3
2.014926 -10.955236 3.9444778 39 3
2.0058811 -10.962662 3.5600166 36 3
1.9970131 -10.970172 3.1845627 26 3
1.9872627 -10.959611 2.8087947 23 3
1.9786464 -10.970607 2.4379268 38 3
1.9699687 -10.978192 2.0724936 25 3
1.9606298 -10.973183 1.7042489 37 3
1.952162 -10.985216 1.3391404 37 3
1.677518 -5.9039407 -0.0043794829 4 3
1.7118014 -6.6509252 0.035171639 7 3
1.7683141 -7.9029145 0.038647614 8 3
1.8967181 -10.797818 -0.10317299 18 3
1.9102778 -10.985453 0.24141574 22 3
1.9160452 -10.99208 0.61093342 16 3
1.9213909 -10.99064 0.97759336 14 3
1.9772089 -10.966717 3.9476595 18 3
1.9683493 -10.9791 3.5639007 23 3
1.9591868 -10.981791 3.1870642 17 3
1.9494474 -10.971276 2.8109515 18 3
1.9407635 -10.982312 2.4397368 36 3
1.932029 -10.989924 2.0739586 22 3
1.9226794 -10.984927 1.705364 37 3
1.9141393 -10.996964 1.339908 34 3
1.6581801 -5.8950872 -0.0015944126 4 3
1.6900383 -6.6469946 0.036633283 7 3
1.7427536 -7.9139042 0.037435886 8 3
1.8610547 -10.809302 -0.1038415 14 3
1.8739855 -10.997001 0.24110636 22 3
1.8797565 -11.003651 0.6109736 18 3
1.885133 -11.002222 0.97798175 14 3
1.9414629 -10.982831 3.9520226 24 3
1.9323087 -10.990445 3.5667098 28 3
1.9233305 -10.998115 3.1904058 24 3
1.9135981 -10.987677 2.8137763 26 3
1.9048446 -10.998773 2.4420407 31 3
1.895843 -11.001445 2.0753913 24 3
1.8866887 -11.001451 1.706625 36 3
1.8776706 -11.003504 1.3406389 31 3
1.6385738 -5.8764648 0.003599386 4 3
1.6691599 -6.6674309 0.032923304 6 3
1.7167715 -7.9149613 0.037951473 7 3
1.8377997 -11.013391 0.24028297 22 3
1.8435771 -11.020081 0.61067462 20 3
1.8489875 -11.018671 0.97820514 15 3
1.9054016 -10.993975 3.9551759 108 3
1.8961946 -11.001664 3.5695224 35 3
1.8871634 -11.009396 3.1928787 36 3
1.8776397 -11.003953 2.8166051 35 3
1.8686206 -11.010142 2.4438219 23 3
1.8597749 -11.017823 2.0771811 29 3
1.8502113 -11.007867 1.7075325 32 3
1.8413459 -11.014914 1.341377 25 3
1.6194005 -5.8674731 0.0063830162 4 3
1.6462982 -6.6291237 0.041626543 6 3
1.6906282 -7.9110055 0.03933043 8 3
1.7866085 -10.742807 -0.092741624 11 3
1.8013402 -11.024689 0.23998088 20 3
1.8072885 -11.036386 0.61037976 21 3
1.8123922 -11.025008 0.978769 15 3
1.8694605 -11.00984 3.9595468 100 3
1.8601968 -11.017645 3.5733821 39 3
1.851109 -11.025473 3.1962285 40 3
1.8413911 -11.015159 2.8187368 43 3
1.8323222 -11.021386 2.4456067 18 3
1.8234224 -11.029094 2.0786209 32 3
1.8140365 -11.024143 1.7088012 29 3
1.8047801 -11.0212 1.3421139 18 3
1.6035175 -5.9068618 -0.0029096175 4 3
1.6277789 -6.6591229 0.035809774 5 3
1.6678206 -7.9314904 0.036350492 6 3
1.7569485 -10.832996 -0.10451855 13 3
1.7686423 -11.040713 0.23909184 21 3
1.7745808 -11.05245 0.61001533 23 3
1.7808294 -11.076055 0.97775173 15 3
1.837253 -11.030314 3.965064 37 3
1.8275864 -11.028501 3.5761285 36 3
1.8184487 -11.036391 3.1986351 38 3
1.8089046 -11.031073 2.8215001 43 3
1.7996243 -11.032392 2.4473212 22 3
1.7906742 -11.040126 2.0799909 33 3
1.7814325 -11.040183 1.7100004 22 3
1.5843025 -5.8977451 -0.00012294504 3 3
1.6070234 -6.6940207 0.02900774 10 3
1.6424005 -7.9569049 0.03256518 7 3
1.7211566 -10.848948 -0.10586401 14 3
1.7320224 -11.05177 0.23879686 23 3
1.7380804 -11.068518 0.60972863 33 3
1.7448237 -11.112125 0.9773193 30 3
1.8007702 -11.03625 3.9670129 17 3
1.7913992 -11.044245 3.5799961 27 3
1.7820494 -11.047308 3.2011182 29 3
1.7724966 -11.04204 2.8236389 36 3
1.7631836 -11.043397 2.4491127 30 3
1.7541789 -11.051157 2.0814373 35 3
1.7449083 -11.051227 1.7110974 17 3
1.5649045 -5.9225492 -0.0057398197 4 3
1.6154943 -7.9822664 0.028811133 7 3
1.6824541 -10.820262 -0.10096481 10 3
1.6935937 -11.067719 0.23802634 26 3
1.699621 -11.084506 0.60948324 30 3
1.7065905 -11.143124 0.97709835 36 3
1.7628425 -11.056647 3.9726484 18 3
1.7531286 -11.055019 3.5828595 24 3
1.7437398 -11.058145 3.2036419 18 3
1.734177 -11.052925 2.8258183 26 3
1.7248298 -11.054319 2.4509444 35 3
1.7157674 -11.062103 2.0829244 33 3
1.5456221 -5.9084444 -0.0017486432 4 3
1.5652361 -6.8516784 -0.0031452971 13 3
1.5902562 -8.0370502 0.019872755 7 3
1.6468774 -10.850809 -0.10437184 13 3
1.6568086 -11.078516 0.23773886 24 3
1.6629025 -11.100316 0.60920495 31 3
1.6691885 -11.133976 0.97818053 32 3
1.7261089 -11.057474 3.9733877 108 3
1.7167449 -11.070504 3.586735 31 3
1.7071952 -11.068804 3.2061322 19 3
1.6976229 -11.063633 2.8279641 18 3
1.6882422 -11.065064 2.4527431 37 3
1.6792303 -11.07786 2.0847337 30 3
1.6715333 -11.157898 1.7164083 37 3
1.5433724 -6.8814764 -0.0088902898 11 3
1.5650696 -8.1212997 0.0057824962 7 3
1.6107148 -10.856477 -0.10432954 11 3
1.6200294 -11.094158 0.23693934 23 3
1.6259944 -11.111009 0.60927165 32 3
1.6321054 -11.139687 0.97876418 34 3
1.6801522 -11.080976 3.5895691 38 3
1.670681 -11.084257 3.209501 33 3
1.661094 -11.079162 2.8308163 23 3
1.6516758 -11.080652 2.4550736 36 3
1.6424984 -11.088504 2.0861914 26 3
1.6340693 -11.143579 1.7166171 37 3
1.5074558 -5.8897352 0.0038266464 4 3
1.5210429 -6.8867397 -0.0094697447 11 3
1.5364429 -7.9493556 0.03641678 5 3
1.5746309 -10.871922 -0.10566096 14 3
1.5830829 -11.1047 0.23665905 22 3
1.5890157 -11.121575 0.60934168 32 3
1.5949857 -11.145267 0.97935057 35 3
1.6532753 -11.092688 3.9833896 36 3
1.6434888 -11.091319 3.5924065 38 3
1.6339775 -11.094661 3.2119987 40 3
1.6243798 -11.089615 2.8329694 33 3
1.6149279 -11.091143 2.4568794 32 3
1.6056942 -11.09902 2.0876522 22 3
1.5969094 -11.144117 1.7173697 43 3
1.587999 -11.181211 1.3467267 33 3
1.4886941 -5.9142528 -0.0017987769 3 3
1.4986781 -6.8919253 -0.010047254 11 3
1.5104883 -7.9693952 0.033508155 5 3
1.5384413 -10.887242 -0.10698839 11 3
1.5460645 -11.115113 0.23638226 23 3
1.5519649 -11.132012 0.60941529 33 3
1.5578289 -11.150721 0.97993976 36 3
1.6067556 -11.101535 3.5952475 32 3
1.597271 -11.109859 3.2153754 39 3
1.5876578 -11.104891 2.8358295 39 3
1.5781672 -11.106478 2.4592183 25 3
1.5688735 -11.114393 2.0894732 20 3
1.559648 -11.134533 1.7177612 54 3
1.5506881 -11.181616 1.3474845 37 3
1.4696161 -5.8901711 0.0045948173 3 3
1.4762257 -6.8823562 -0.0075288285 10 3
1.484354 -7.9794931 0.032322139 17 3
1.5021229 -10.897483 -0.10762402 14 3
1.5089756 -11.125397 0.23610905 22 3
1.5148425 -11.142321 0.6094923 31 3
1.5206358 -11.156042 0.98053175 34 3
1.5699532 -11.111623 3.5980918 25 3
1.56046 -11.12493 3.2187564 30 3
1.550786 -11.115088 2.8379898 40 3
1.5413018 -11.121683 2.4615612 19 3
1.5319104 -11.124653 2.0909414 24 3
1.5225859 -11.144806 1.7188811 49 3
1.5132066 -11.15189 1.3481992 33 3
1.4506904 -5.8999977 0.0025783104 3 3
1.4538407 -6.8629227 -0.0029484769 10 3
1.4581978 -8.063386 0.018257206 12 3
1.4657347 -10.907598 -0.10825626 13 3
1.4718249 -11.140526 0.23532517 20 3
1.4776503 -11.152499 0.60957289 32 3
1.4834211 -11.166232 0.98096156 33 3
1.5429846 -11.127579 3.9941638 107 3
1.5330819 -11.121581 3.6009395 36 3
1.5235133 -11.13495 3.2212648 22 3
1.5139006 -11.135056 2.8415623 36 3
1.5043075 -11.131788 2.463378 23 3
1.4948772 -11.134784 2.0924132 31 3
1.4854077 -11.139959 1.7194576 38 3
1.4759877 -11.147033 1.3489511 35 3
1.431852 -5.8709288 0.010170097 3 3
1.4315587 -6.8531961 -0.00043120395 10 3
1.4315677 -8.1077824 0.011073145 13 3
1.429288 -10.912633 -0.10819826 9 3
1.4345698 -11.155526 0.23454548 20 3
1.4403814 -11.167537 0.60931802 34 3
1.4461365 -11.176291 0.98139477 37 3
1.4961816 -11.141189 3.6058853 40 3
1.4865134 -11.149763 3.2246537 46 3
1.4768878 -11.159845 2.8458443 43 3
1.4672571 -11.15171 2.4662595 35 3
1.4577777 -11.154757 2.0946038 43 3
1.4482516 -11.159966 1.7209489 39 3
1.4387702 -11.167048 1.3497456 39 3
1.4134789 -5.9340153 -0.0050682556 2 3
1.4105896 -6.8238244 0.0061845081 10 3
1.4057851 -8.1816444 -0.0012792209 11 3
1.3946023 -10.9225 -0.10886145 12 3
1.3990258 -11.180346 0.23270515 24 3
1.4048536 -11.187438 0.60869038 35 3
1.4106096 -11.196223 0.98146456 40 3
1.4709337 -11.161519 4.0041695 112 3
1.4610018 -11.160675 3.6107979 47 3
1.4512663 -11.174298 3.229763 59 3
